ply
format ascii 1.0
comment Created by Open3D
element vertex 1419
property double x
property double y
property double z
property uchar red
property uchar green
property uchar blue
end_header
-17.6607 27.9406 420.109 114 83 25
38.9143 52.1536 392.189 103 67 0
13.7205 80.4432 391.514 117 85 19
16.2917 26.8122 398.301 100 65 2
-32.7495 29.0678 391.245 114 79 25
-34.0369 75.9631 398.557 87 62 20
42.9583 37.1285 391.503 110 68 3
43.4843 63.2595 391.42 138 100 37
-12.8542 65.0942 408.557 114 83 13
-10.675 20.2596 420.449 121 82 21
-9.20345 24.1631 420.503 115 78 13
44.4592 41.3921 391.478 108 69 0
-34.6882 35.4028 398.023 110 80 14
9.0279 -6.94701 398.346 125 82 15
-26.2017 38.6432 418.763 117 87 31
36.4566 73.7957 391.358 115 84 25
-31.618 75.4394 398.518 81 57 13
15.9854 37.9239 408.481 95 60 3
18.9998 68.8855 418.478 115 84 22
42.0863 54.666 391.591 114 78 5
-30.1551 79.6043 391.521 1 0 0
41.5584 55.7022 391.099 117 80 8
42.2052 56.1836 391.957 115 80 24
41.9755 55.3789 391.537 118 81 11
22.5652 79.2679 391.727 91 66 10
17.5469 79.5272 392.375 5 4 4
19.0444 79.5297 392.322 4 4 3
-26.2719 80.2361 391.326 0 0 0
-28.3898 79.8983 391.689 0 0 0
19.7218 79.4144 391.133 4 4 4
12.3553 33.0197 408.661 113 78 16
39.8648 60.8216 397.953 108 74 5
34.2254 59.9809 408.602 122 85 24
-32.6637 -4.43287 391.561 114 80 11
-17.5536 -20.1914 398.283 112 77 8
-33.9094 0.626477 391.711 119 86 20
-32.8956 24.797 391.321 122 86 14
1.16224 75.9418 391.79 92 65 10
-0.870856 69.6825 391.855 87 58 0
-3.20229 63.1593 392.16 92 61 1
-14.4129 -18.9344 391.726 109 73 4
-33.5553 19.4232 391.484 119 85 21
-33.8962 15.0919 391.524 119 86 23
-34.1866 40.1844 392.054 112 77 17
-0.9507 70.2278 391.394 83 55 6
-16.1685 13.0012 420.401 103 73 8
-33.6861 20.8743 391.368 112 78 18
-33.7397 3.60375 391.891 115 82 19
1.78412 77.5831 391.404 100 69 10
-35.1255 11.1137 391.792 101 72 5
-33.6039 22.4796 391.446 118 85 19
10.6382 -1.13203 391.518 114 77 8
-8.47959 23.8307 420.396 100 62 0
-34.0273 41.0656 391.672 107 77 14
-33.7319 -1.30905 391.603 111 78 13
-9.86876 57.889 391.513 108 74 13
39.6886 30.1305 391.45 112 73 2
-31.8839 66.4102 391.245 110 80 20
-10.5133 58.795 391.776 103 75 11
-33.7689 16.9779 391.369 126 87 21
-0.0768998 72.9715 391.549 87 57 2
-10.5007 -19.3471 391.758 105 71 4
-34.7209 11.8658 391.385 115 82 18
12.5047 67.6398 418.608 110 77 24
-32.2732 4.89616 398.39 106 69 0
-8.13564 -19.3034 391.727 106 71 4
-24.677 43.2572 420.599 122 86 22
34.7726 41.136 398.344 103 67 1
-14.1958 23.4145 420.477 111 78 8
-9.38763 18.435 420.544 115 75 6
-23.5897 80.5238 391.966 125 93 31
32.0351 20.0638 391.716 105 64 1
-31.1648 79.8256 392.151 99 67 3
12.8575 15.8377 391.679 97 64 12
-12.14 62.0876 391.292 93 67 4
-1.48327 68.6062 391.446 90 58 0
-30.9851 79.4726 391.503 21 3 0
-34.334 13.8381 391.847 117 84 23
11.9477 6.29638 391.264 110 72 8
-16.6281 26.5879 420.345 117 85 30
13.5608 17.1318 391.641 94 64 2
-32.9088 29.6758 391.657 112 83 26
-20.5527 8.8551 420.197 120 85 26
-32.931 30.3792 391.676 114 79 24
-38.2366 77.8812 391.659 111 80 18
-28.193 -16.5592 391.328 119 84 17
-9.66144 27.875 420.476 114 76 14
-7.08187 61.0802 418.642 113 80 21
-4.0481 61.415 391.714 94 62 1
-37.5732 79.206 391.416 117 85 24
-33.3898 48.7578 391.685 100 68 5
11.8157 11.3111 391.528 108 74 0
-9.88766 19.3138 420.508 121 80 7
-32.1398 53.2757 391.887 101 71 8
-31.361 65.4294 391.4 111 78 1
-31.0039 -13.9618 391.93 122 84 16
-5.41439 -18.9135 391.365 104 70 4
-22.3364 77.5487 418.751 118 89 31
-36.5529 80.2273 391.35 121 90 35
20.0625 22.592 391.288 87 60 11
-29.9665 -15.1724 392.191 119 82 17
10.191 -6.03147 391.548 113 78 0
-24.5102 42.0255 420.398 112 82 16
19.919 24.6693 391.446 91 64 0
17.1567 26.0204 391.692 78 51 2
-20.4506 80.3189 391.418 120 91 30
37.3093 25.8291 391.653 104 66 2
-23.9603 -8.93539 408.494 122 81 13
-31.4209 -13.3504 391.752 121 83 16
-30.9325 63.9089 391.553 106 81 29
14.8606 23.3642 391.522 83 51 5
-31.7266 -12.9356 392.249 119 83 30
10.0104 -6.74053 391.759 115 76 16
5.78832 73.2725 420.478 126 95 34
8.01248 -8.03139 398.295 125 86 2
15.3337 24.0727 391.27 72 46 2
-18.03 78.7967 392.064 117 84 32
40.8173 32.7541 391.469 104 65 2
14.2285 24.1459 398.317 101 66 11
32.6066 34.5769 398.347 101 66 2
38.3698 27.2963 391.564 106 68 0
34.7128 22.9353 391.5 98 59 0
-15.6499 25.574 420.484 121 86 27
-24.9481 41.2722 420.174 110 81 20
-14.2028 69.3154 391.635 105 71 14
-13.3673 66.0714 391.523 102 69 6
25.3458 12.5433 391.335 105 69 5
-4.53101 14.0851 420.179 105 71 1
-11.0871 18.3666 420.515 104 67 2
39.013 28.5345 391.544 116 73 0
-32.0977 -5.45563 391.666 107 74 11
45.6834 46.233 391.485 116 76 4
38.6028 27.9502 391.641 110 71 0
20.3249 21.7112 391.767 91 62 1
3.41522 79.3835 391.398 116 81 27
25.3781 80.4243 391.843 129 99 38
-35.147 32.5803 398.335 107 75 2
-36.6351 71.8226 391.797 103 75 17
15.4853 66.7524 418.448 117 84 20
26.1765 80.4245 391.704 135 102 46
42.007 34.9392 391.305 105 66 2
2.18909 68.2349 408.797 81 53 5
6.09928 -18.3711 398.429 105 73 5
31.2452 80.3256 391.642 131 100 30
-0.565098 65.0171 397.847 96 63 6
36.0717 74.5237 391.816 116 85 27
31.8187 33.9869 398.214 113 75 14
-8.47965 68.794 420.071 109 78 15
34.7428 60.8112 408.576 122 86 26
1.92753 67.4795 408.813 85 55 2
34.8285 76.5432 391.69 117 86 28
7.37508 80.1042 391.725 126 96 34
11.0799 80.1805 391.777 128 95 40
-21.1244 -19.9657 398.611 121 85 22
47.1013 54.4877 391.656 119 76 8
37.5011 72.0322 391.976 120 85 31
46.8808 51.8697 391.572 115 77 7
46.7007 51.2034 391.64 111 75 5
2.60489 72.5983 398.395 91 62 8
-8.36404 67.7855 420.244 109 79 24
5.32008 16.6257 408.908 123 83 12
24.5918 80.5207 391.349 129 99 28
41.2713 65.8077 391.626 130 95 39
-35.463 31.7565 398.424 104 70 3
40.053 67.554 391.413 124 89 29
46.7905 57.5308 391.6 113 81 18
5.19932 72.5065 420.464 113 83 20
-32.8931 -4.72508 392.265 113 81 24
10.7483 -3.43001 391.611 108 72 9
-0.762847 64.4307 398.333 95 63 5
0.820475 75.1581 391.791 88 61 12
-24.9018 55.0791 398.427 101 72 3
-12.4801 22.0522 420.398 124 83 20
-29.5971 -12.8828 398.443 104 72 9
-17.6505 -18.1114 391.747 111 78 14
16.7933 70.3231 418.788 129 95 33
39.0765 29.4957 391.577 110 72 2
10.4266 1.33785 391.562 114 78 18
-14.0171 13.6442 420.547 117 84 12
-29.8549 74.0328 398.471 79 54 5
-27.7006 -10.9155 398.332 116 80 17
-33.9972 4.50888 391.674 94 69 9
39.8036 30.9293 391.507 109 74 2
1.6997 76.4877 392.177 99 68 11
46.1188 48.2897 391.564 115 75 7
-27.3631 -17.3453 391.916 119 82 15
32.698 79.6292 391.702 128 98 34
-13.4901 -18.8682 391.673 109 78 24
-26.0932 -18.2279 392.2 125 84 27
-33.9932 72.7748 398.477 99 69 20
29.4713 15.6534 391.534 120 83 18
-30.6003 -7.08756 391.819 103 72 11
3.19392 78.8291 391.995 107 75 19
13.8663 17.8667 391.922 94 61 9
21.8918 15.9367 391.741 95 64 2
13.9937 18.7848 391.627 90 59 0
30.0571 16.4033 391.471 114 74 2
14.0643 19.4054 392.142 91 56 0
-10.0353 57.9501 398.351 123 88 27
41.863 35.3167 392.081 100 60 1
4.73001 75.1527 418.641 109 80 21
-30.1015 -5.22862 398.267 113 77 5
21.6312 16.6689 391.926 97 66 2
4.38239 74.3727 418.768 101 75 22
4.09027 -18.1062 392.618 93 65 11
-30.8656 68.0595 420.31 114 80 13
39.6851 56.5362 391.804 101 66 11
3.96046 -17.9382 391.821 93 64 6
-30.3591 75.0341 398.419 81 57 8
4.954 71.5666 420.481 112 82 19
43.1701 38.0235 391.815 105 68 0
-22.4841 77.2082 420.507 115 88 34
-2.776 64.923 391.529 86 57 0
-22.3505 -18.1126 392.011 103 71 7
-5.51948 51.3512 420.205 111 82 22
33.1987 21.3989 391.425 93 56 1
44.1493 40.5864 391.596 111 72 0
33.9422 22.3005 391.658 100 63 1
11.6972 12.1691 391.674 112 73 1
-12.4257 19.0081 420.393 118 84 21
34.8447 38.173 398.296 105 70 5
-18.4422 79.41 391.637 121 91 34
46.477 50.2794 391.68 114 74 3
-6.54252 35.977 420.476 107 68 0
12.1044 -15.1656 392.207 113 78 15
-33.0726 80.4642 391.392 120 90 34
-12.5496 18.2119 420.417 118 85 18
5.76515 79.9052 392.358 121 89 31
18.2657 79.4182 397.576 1 1 1
-30.7718 63.2283 391.932 112 79 9
9.73795 -7.47716 391.766 114 77 7
44.5842 43.2975 391.806 108 70 1
-14.6048 70.9301 391.677 105 75 15
44.4126 44.2645 392.287 111 72 2
-16.5843 77.1122 391.519 107 80 21
-15.9331 75.3066 391.711 106 76 22
45.2319 44.8626 391.626 111 71 2
34.5056 62.9777 408.759 126 95 39
32.5918 47.8015 408.744 113 78 14
-27.4356 77.2857 418.744 126 95 43
-36.5437 29.6039 398.46 111 76 13
5.10921 15.6936 408.665 119 82 20
-0.675084 -17.9352 391.757 104 69 5
32.0787 46.7621 408.688 110 76 12
6.93197 21.6687 408.571 110 70 1
-5.89667 -20.6529 398.335 108 75 9
0.0989658 -17.6774 391.67 101 70 9
26.9133 80.3527 392.163 136 104 47
13.8213 70.1759 420.411 128 95 43
-28.2545 -18.7797 398.282 124 85 9
35.9143 73.825 397.668 115 87 32
-28.1459 -11.1391 397.755 107 75 16
-32.691 51.6116 391.544 105 73 13
12.5601 71.4198 420.219 120 89 22
-32.8724 28.7066 391.829 111 80 18
-32.4539 52.2419 391.789 101 69 10
-4.80459 -18.9698 391.763 104 69 4
23.2085 14.3618 391.772 101 67 2
-34.3689 15.5327 392.042 122 90 23
-33.782 35.481 392.16 103 66 0
-33.8868 15.7935 391.514 125 88 25
-12.7446 63.8837 391.932 100 69 7
-5.7686 58.5728 391.797 96 65 0
-26.89 52.5477 398.363 107 74 15
-34.7788 69.7367 391.811 103 72 12
24.5612 80.3766 392.158 127 99 30
-29.2342 66.0954 420.456 96 65 19
-27.6296 -19.1184 398.169 122 84 12
-28.8203 -12.0574 398.248 105 72 9
-31.3155 68.6813 419.998 104 73 15
-6.26642 58.0812 391.863 101 66 2
42.3267 64.4153 391.959 136 100 41
-34.1041 69.3564 391.839 99 71 16
13.2242 69.708 420.219 129 98 45
-33.458 24.0101 391.744 115 83 20
-33.7697 20.2622 391.702 117 83 19
-33.7687 18.6022 391.533 122 88 30
-38.8787 75.1548 391.818 108 74 11
-11.7408 19.9966 420.412 110 73 5
37.7909 26.5349 391.668 104 71 7
15.9145 79.4934 392.409 27 4 3
-13.7571 21.571 420.257 118 80 18
18.1403 79.6405 393.695 3 2 2
2.62226 19.9767 415.916 111 70 2
-27.1927 80.0297 391.814 0 0 0
42.5985 54.1867 391.976 113 77 13
-28.4423 9.61417 408.565 106 73 17
10.6226 2.23386 391.685 116 78 12
-3.63215 62.4603 391.668 91 60 0
-15.5122 73.5414 392.1 107 75 14
-33.1224 -4.02919 392.079 114 82 17
11.0709 3.03454 392.158 110 70 2
2.58905 77.9712 392.13 105 71 13
-30.2537 71.8509 398.4 80 58 4
-28.5467 65.6517 420.185 94 69 19
-10.1229 -19.658 392.365 107 71 5
-33.2462 30.7343 392.545 114 81 24
-15.0728 13.5538 420.354 108 74 1
-10.8121 19.5512 420.291 116 82 8
-2.41567 62.1533 396.765 98 67 3
-23.9669 53.6979 420.2 122 88 32
-32.479 71.2683 398.207 97 69 20
-1.56749 62.985 398.374 97 66 3
-30.3973 71.137 398.255 85 58 6
-30.2708 75.7189 398.33 81 57 10
40.2648 31.921 391.665 100 65 1
-13.7455 67.4126 391.775 103 71 12
-10.9557 59.5085 391.824 101 70 10
-14.0132 68.2469 391.995 102 70 7
-15.7047 74.5475 391.798 105 77 16
6.37445 79.7064 393.831 122 91 32
-33.9671 21.0209 391.991 112 81 22
-30.974 76.0046 398.378 84 61 15
30.4189 17.6558 391.84 115 83 20
41.8109 52.5116 391.801 98 66 7
15.2209 23.8488 392.082 82 52 3
5.95482 73.9353 420.345 128 95 35
-31.2024 71.0024 398.2 94 65 2
-32.8696 26.7942 391.81 109 80 23
-23.784 52.6756 420.302 111 79 16
9.88033 -17.8347 392.116 117 80 11
-29.5196 72.1345 398.367 76 54 2
38.7632 53.4473 392.046 102 65 0
-8.20348 20.6944 420.324 87 56 1
41.4602 34.1182 391.667 89 56 2
-33.0819 49.8584 391.785 100 70 8
12.0539 9.92206 391.946 109 75 5
28.1856 80.3484 392.318 131 102 39
-32.7232 51.0378 391.925 94 66 9
34.3741 77.3015 392.361 117 86 31
-7.05684 58.4935 397.436 119 86 30
25.0888 13.6874 392.032 108 71 4
-30.701 -14.4268 392.35 120 82 15
-25.342 45.4043 420.127 117 83 25
-4.72595 59.3719 398.41 113 79 13
-18.2978 20.2402 418.666 113 77 18
30.7033 80.3146 392.237 138 101 41
-3.86338 -18.73 391.669 103 72 4
11.1009 -16.6654 391.707 108 72 8
-31.1432 57.2632 392.061 103 74 14
-7.66509 19.0016 420.289 90 54 0
18.045 26.6633 392.192 74 45 1
36.6316 25.1355 391.811 106 69 3
-2.11555 -18.3705 391.785 106 69 5
-9.8851 17.8852 420.367 114 79 8
40.7975 57.156 391.684 101 68 8
15.0732 79.4979 392.499 76 51 4
-1.61596 67.1484 392.294 87 58 3
22.5806 15.057 391.969 98 64 2
42.5464 37.5109 392.374 103 67 0
12.2107 -13.9289 391.824 116 80 13
12.6604 80.1972 392.554 122 91 29
0.445009 59.5553 408.685 92 64 6
20.8193 18.2508 391.588 94 64 5
-19.8968 61.1736 408.869 94 69 17
26.9244 13.3773 391.92 113 74 3
-24.4694 37.9296 420.222 113 79 8
0.371812 58.7941 408.554 95 65 9
-33.0548 68.3157 391.809 104 73 12
-25.1798 -18.3982 391.952 114 76 3
27.8468 13.6504 391.486 110 71 7
27.5922 14.3175 392.159 116 78 12
1.49379 -3.83136 420.075 91 61 5
-10.0022 17.0999 420.382 116 80 3
0.656226 67.5179 398.161 93 62 0
4.17266 7.10417 408.78 103 66 6
45.4477 45.5983 391.588 111 71 3
-34.7947 14.2344 392.599 119 88 26
44.2265 42.4734 391.922 109 70 0
28.1435 14.8324 391.861 107 70 12
45.8713 47.547 391.636 115 76 11
1.09887 74.2708 392.817 93 63 8
38.5423 70.1524 391.715 119 87 28
-6.23808 23.3069 418.704 106 72 1
20.7044 20.0875 392.148 95 65 1
8.10604 72.1215 420.256 113 81 12
45.2 61.0373 391.559 135 95 28
38.3354 29.0103 391.822 107 71 2
-25.0665 43.7754 420.084 122 90 28
2.11385 77.4375 391.988 97 69 12
36.9874 72.9641 392.204 118 87 33
-38.1676 73.5416 391.903 109 77 16
46.7184 53.9299 392.007 125 82 5
-38.6356 74.2708 391.912 106 76 16
45.5478 60.0266 392.021 128 93 29
46.9368 55.9948 391.788 118 82 11
38.0055 71.1051 391.717 119 86 28
34.9409 40.0682 398.368 107 68 4
-20.2723 -1.44194 419.837 110 75 11
-8.57076 69.3916 418.689 104 75 23
0.31513 73.9824 391.685 86 58 10
38.2996 52.9072 397.754 97 62 0
-18.5165 -18.2809 392.229 108 76 26
-31.2012 -6.42921 391.66 104 74 10
-16.4308 -18.747 392.161 109 75 6
-15.5946 -18.9802 392.195 109 74 4
-30.0463 -7.7466 391.797 110 79 20
-21.9128 80.4014 392.026 120 89 34
-34.2474 17.7884 391.8 121 90 30
-29.2869 73.5704 398.398 77 52 4
-21.4207 80.1822 392.582 121 94 33
-12.5805 -19.2373 391.935 108 72 4
-24.653 49.2689 420.277 110 79 20
-33.7327 44.0788 392.461 100 69 3
-10.5213 18.739 420.258 117 79 9
4.9994 -18.1709 391.611 95 65 1
14.0535 21.4798 392.178 92 59 1
-34.081 44.5686 391.844 100 69 9
10.0113 74.6403 420.36 132 103 39
1.24225 -17.7369 392.181 98 68 5
44.4201 61.9657 391.73 137 99 37
40.8568 52.0552 391.78 89 55 2
12.0732 8.12615 391.705 113 75 5
39.1481 30.3405 392.032 93 58 1
-33.4936 33.1176 391.675 104 71 0
31.1135 18.6339 391.766 111 74 5
8.89457 -18.2866 392.16 118 83 18
-3.05073 -7.59209 419.918 78 52 8
-24.6242 55.7502 398.308 101 71 7
-3.70413 39.2498 418.787 113 76 8
-6.96228 -19.2985 391.813 104 73 4
-33.5168 47.7916 392.038 98 67 6
5.00798 77.3281 398.054 104 73 17
-33.7306 23.3132 392.001 113 78 14
42.8726 63.7075 392.06 133 97 41
-33.0975 -3.3228 391.696 114 82 15
-35.6346 80.3325 392.175 131 95 43
15.1046 72.9221 420.262 126 94 33
39.5973 31.048 392.257 88 53 1
-29.146 72.8759 398.377 73 49 2
-3.71984 61.9398 392.107 93 61 1
4.7462 70.5771 420.319 114 82 17
15.2735 72.0947 420.329 123 90 33
-18.592 23.7286 418.65 106 75 7
-14.4954 70.2293 391.935 104 72 11
-33.601 80.5253 392.068 123 93 35
-30.0994 -9.37791 392.1 108 77 14
-14.7804 70.7064 392.333 105 75 16
-15.172 72.6369 391.963 107 76 15
-2.43426 65.3682 391.931 89 56 0
-20.7879 58.0692 398.337 99 66 3
46.2239 58.8747 391.803 118 83 23
-1.23493 -18.4975 392.538 102 67 5
-2.14429 -18.7527 392.574 97 66 5
-8.63616 70.0512 419.948 106 77 22
-31.3626 -11.1529 391.701 111 78 17
-8.92734 71.6784 419.767 105 77 18
-14.8089 -19.2968 392.607 108 71 4
10.0428 16.6389 398.199 108 69 4
3.96441 75.8507 398.019 98 68 9
-33.9796 41.7439 391.798 111 76 14
45.9184 49.5277 391.997 118 78 11
34.8153 37.4719 397.863 104 68 2
-31.8317 66.8148 392.412 110 79 16
28.0268 15.3239 392.361 112 73 3
-35.3709 70.1687 392.168 103 73 12
-17.8639 29.313 420.188 111 78 15
-27.7319 51.324 398.297 107 74 15
-33.5985 68.949 392.258 102 75 18
19.6024 26.6044 391.791 89 64 13
-0.851888 68.9106 392.474 90 60 4
-25.7281 54.7222 398.206 103 71 1
-32.9805 74.6535 420.063 107 75 10
-31.5627 55.4791 391.804 101 70 4
28.5437 15.3534 391.66 113 75 9
-34.8302 6.14688 391.807 101 74 7
28.0543 79.2667 398.069 133 101 44
7.9719 79.2474 398.27 119 85 27
39.2606 56.6732 397.984 101 65 0
-13.4452 77.5221 419.826 123 95 35
-34.6582 76.8584 398.367 91 67 18
-38.9091 76.1139 391.932 108 75 4
-8.79841 57.4961 392.01 112 78 12
28.9187 33.1936 398.074 94 62 3
-35.5902 76.5379 398.41 96 69 17
-7.46838 57.8352 392.609 114 81 20
15.3095 70.6103 420.225 111 80 20
-34.2883 16.4411 391.898 123 88 31
8.99927 74.7886 420.292 120 92 31
31.2049 33.1541 398.3 114 74 13
34.0017 43.2173 398.014 101 63 1
8.25541 80.0847 391.968 127 95 37
43.4027 39.2606 392.057 110 71 8
-11.9156 61.714 391.934 102 71 8
11.8369 80.153 392.335 125 91 33
10.7196 -1.25706 392.282 115 77 8
14.0092 74.4972 420.259 134 102 46
29.4243 80.3016 392.616 134 102 41
-7.08267 57.6269 391.935 107 73 2
13.3656 16.6159 392.177 99 64 2
-26.0184 48.3203 418.845 113 81 12
28.8638 80.4094 391.887 135 101 42
25.5016 80.3148 392.636 126 97 35
43.8771 41.1334 392.009 108 68 0
-30.1183 79.3849 392.333 121 88 28
-29.1413 79.6905 391.817 0 0 0
4.02407 73.0376 408.502 88 61 5
25.8706 34.3283 398.074 94 63 10
42.7442 54.9576 392.204 115 79 21
-27.0118 79.8712 392.473 3 0 0
24.1685 78.7758 392.593 76 51 12
23.4157 79.1249 392.533 78 52 11
20.8015 75.056 415.94 129 98 47
19.0003 79.6062 393.174 4 4 4
22.6631 79.3275 392.611 78 55 9
21.4188 79.5143 393.015 4 4 6
-32.3696 67.5189 392.192 107 77 20
-34.3722 19.4203 391.994 119 86 19
-35.2878 7.6716 392.137 123 86 14
-15.3534 18.9185 418.618 115 79 15
11.3031 -11.6578 393.108 106 74 9
-11.5158 -19.4746 392.14 103 71 3
-35.3062 8.94587 392.141 113 80 14
-18.7084 13.9207 418.944 104 74 11
11.1408 -11.3939 392.058 105 71 1
-33.2855 76.9149 398.306 92 65 18
-20.2964 6.69484 419.924 123 83 21
10.2008 -10.1071 392.068 107 71 0
-2.77473 64.2548 392.02 88 58 8
-18.1689 24.5494 418.835 112 78 19
-31.7364 54.2113 392.257 93 64 7
-11.4465 60.6519 392.059 103 71 9
-33.4422 -2.74195 392.315 119 83 28
-33.8925 21.8392 391.972 111 77 11
-2.02322 65.8523 392.441 88 59 0
-8.87816 -19.5826 392.192 103 70 4
2.3048 4.44315 420.147 106 67 3
-31.2255 56.1701 392.37 102 72 10
-1.76545 10.169 420.225 108 73 8
-36.0468 75.1806 398.464 99 69 11
-17.073 -18.6183 392.428 113 78 23
-4.32531 41.9799 420.086 119 80 25
-8.43516 -8.7542 420.216 92 65 11
-24.8841 51.3051 408.902 109 76 14
-33.338 24.9887 392.001 114 82 18
-31.3816 -11.3622 392.441 113 79 8
-23.0167 -18.573 392.467 105 72 3
-17.1035 27.1554 420.253 117 82 25
9.23712 13.7863 398.32 117 81 1
-30.7325 60.7031 392.059 108 77 20
42.4718 36.6568 392.032 105 67 0
12.097 6.98475 392.35 111 77 13
-6.50446 25.0875 418.73 105 65 0
-26.0707 80.0219 392.111 1 0 0
41.7746 65.0998 391.916 133 97 41
-25.3662 80.2716 391.888 55 19 0
42.6491 52.9611 391.919 111 74 8
-31.052 64.9639 392.035 111 80 9
12.3013 -14.4489 392.833 116 79 24
-20.0419 31.2222 420.197 105 71 12
10.6079 -0.23883 392.366 111 75 10
46.3267 57.9215 392.037 115 82 19
43.6659 39.9643 391.972 101 67 3
-12.9869 64.6306 391.968 101 68 6
-30.813 45.8147 398.141 113 83 27
-33.655 34.3367 391.958 99 64 8
25.8523 13.5973 391.811 105 71 11
-31.5704 3.85757 398.339 114 78 8
-33.0718 31.4778 391.977 112 76 12
12.9718 74.3402 420.219 120 89 28
-31.9233 33.8218 408.593 111 81 26
-30.6978 61.9202 392.034 108 79 14
-17.4207 77.9832 392.112 113 82 26
-23.1459 34.6884 420.226 109 79 14
20.9479 19.0036 392.251 103 69 3
44.445 61.4747 392.339 132 92 29
40.2854 67.1438 392.009 124 90 39
21.6932 17.2204 392.378 97 67 2
-4.81592 38.9085 420.199 106 69 11
46.5119 53.2451 392.106 122 83 3
-5.34886 50.3882 420.182 114 80 21
46.0021 50.9236 392.121 117 80 1
36.2755 74.2217 392.523 117 86 31
46.7837 55.3158 391.987 122 84 13
20.5276 21.0777 392.065 95 65 1
14.4111 22.6716 392.204 95 62 2
12.3343 73.4991 419.945 116 83 16
35.4267 24.1154 392.065 112 75 2
-20.1964 80.055 392.079 123 94 35
7.16837 68.9107 420.229 110 74 6
29.5302 17.0072 391.927 115 77 7
37.4293 27.5224 391.934 112 74 2
-15.7755 20.1136 418.545 118 85 25
-2.61246 10.4299 420.307 111 76 6
36.6012 25.82 392.108 111 74 4
-34.7648 18.2832 392.314 116 83 21
8.3581 73.5235 420.268 107 81 25
28.6991 16.323 392.03 111 75 3
-4.36601 13.4202 420.237 109 72 0
18.9258 26.8476 392.097 71 47 3
45.415 47.8264 392.101 115 79 6
14.5864 67.5504 418.63 119 83 20
-3.06461 11.3312 420.019 105 71 5
1.12113 9.40384 420.148 101 65 0
44.7929 45.1513 392.152 111 74 4
28.9814 17.2362 392.281 111 73 4
41.942 56.9392 392.105 110 74 16
46.668 52.5221 391.89 122 82 12
32.4601 79.7101 392.533 129 98 36
-8.86854 25.3675 420.337 99 60 0
45.3384 47.0619 392.043 116 74 1
9.21323 -1.23432 397.868 109 70 2
6.90025 80.0065 392.299 123 93 32
39.6884 51.5894 392.258 96 58 0
13.4515 80.3526 392.242 120 87 27
14.2566 79.6821 392.186 108 83 20
-22.4941 57.9941 398.171 95 63 6
7.70836 80.0112 392.501 124 94 34
-36.3641 76.3843 398.275 109 78 21
-30.9856 -4.00633 398.056 112 73 1
-25.3628 77.3227 420.182 123 94 38
-37.367 19.0073 398.228 108 73 3
-8.62999 24.6286 420.383 100 59 0
0.290611 72.7513 392.299 90 58 2
-25.931 77.3269 419.616 130 100 44
-33.8594 45.9196 392.098 98 67 10
-12.3464 -19.5791 392.58 105 71 4
-4.23612 60.8338 392.44 98 66 8
23.8539 35.0435 398.257 97 66 14
-26.9266 -17.9534 392.842 118 82 19
-33.7191 46.6901 392.128 95 68 5
6.1755 19.3947 408.782 116 76 1
-16.1194 74.8369 392.353 104 75 17
0.721835 74.4924 392.032 92 61 6
-33.1277 71.1557 418.584 113 79 11
2.99609 -17.7964 392.223 93 67 13
26.4807 14.1798 392.29 107 70 10
-10.8336 -19.71 392.559 105 71 4
25.4839 14.481 392.286 110 73 2
-14.5737 69.77 392.462 100 71 10
-20.2953 2.77871 420.312 98 65 0
26.7903 15.0325 392.749 109 72 6
-16.1908 -20.3803 398.345 112 78 19
9.4197 8.90565 398.094 110 73 1
-31.7246 -6.33843 392.445 103 72 8
-18.074 78.2591 392.669 111 83 28
-16.1636 -5.56726 418.73 93 67 5
-5.07855 15.4874 420.152 101 64 1
-33.7911 36.4091 392.622 104 70 0
-36.1799 24.0918 397.585 105 72 4
-16.7853 76.4521 392.361 107 77 22
-34.0027 36.9842 392.223 102 69 0
-17.0499 77.2916 392.152 108 79 22
-5.64374 14.6483 420.231 124 87 26
-34.0953 38.3498 392.518 106 72 10
-34.2134 39.1244 392.193 111 74 11
-34.3704 14.7319 392.072 126 90 22
-34.1282 41.2502 392.368 111 78 21
-22.7525 80.44 392.152 124 92 34
14.4337 22.9593 393.051 94 61 3
-31.7455 -12.2104 392.243 118 80 11
-36.438 24.3909 398.526 112 78 16
-23.9137 58.8412 419.798 119 87 28
-33.112 70.2334 420.227 117 84 15
-4.94226 14.7271 420.289 99 63 0
-1.43449 68.065 391.953 87 58 1
41.4592 51.5026 392.237 107 70 2
-5.38337 -19.3845 392.374 106 70 5
-21.4667 32.4821 420.211 105 74 11
-23.76 58.1655 420.008 119 87 30
-8.58694 22.3585 420.268 101 65 11
-32.2506 0.40281 398.379 114 79 19
43.0219 38.6605 392.3 106 69 1
-31.8793 80.1269 392.186 118 88 32
42.7894 52.3023 392.091 109 77 10
-33.9448 7.61196 398.361 100 66 0
3.70915 -0.31122 420.342 117 81 14
-4.45391 16.9097 418.936 108 72 1
31.3022 19.6099 392.076 117 80 15
39.0936 55.0708 392.227 95 58 0
-16.3145 25.8577 420.32 120 87 26
-13.6119 66.5281 392.302 102 71 8
12.0803 7.90121 392.525 114 75 3
-33.4627 80.4639 392.824 129 96 34
-3.55637 -20.1748 397.206 106 75 17
40.1411 57.1223 392.151 103 68 12
-5.19309 59.4368 392.05 99 66 5
11.8565 10.7195 393.248 121 76 3
-34.0369 1.47064 392.109 115 82 18
3.78488 70.2636 418.994 99 68 12
43.6844 41.8458 392.223 105 69 0
9.61037 -17.2251 398.251 111 76 4
46.1714 52.0089 392.167 120 85 14
20.2671 24.6466 392.271 105 72 8
24.5484 14.8659 392.553 114 76 14
-30.7855 59.4957 392.275 105 76 20
37.0373 26.544 392.015 116 77 1
24.3124 14.216 392.128 110 73 6
-35.2103 6.86896 392.107 113 82 17
37.8216 28.4432 391.978 107 71 2
35.8458 24.8812 392.2 111 74 2
20.5083 22.4096 392.363 100 68 0
38.2558 29.2295 392.47 92 55 1
-23.6729 56.2932 398.429 98 67 10
-12.0952 -20.7495 397.48 108 73 16
41.3209 57.4153 392.28 106 75 17
45.7533 59.2353 392.196 117 82 19
9.63137 -7.99654 392.889 119 83 20
39.2202 68.9539 392.171 118 87 32
-25.9143 -18.5235 392.876 119 80 15
3.50639 -13.5399 408.575 113 73 13
-29.7045 -6.07377 398.224 109 76 2
40.7169 66.4666 392.096 130 94 39
10.2618 -5.93368 392.334 116 83 18
-35.8641 15.7685 398.242 110 73 11
-23.4639 -5.66319 408.97 114 79 14
31.8233 80.0928 392.206 126 96 32
30.2277 18.5826 392.068 117 80 15
30.4038 19.4851 392.218 120 80 2
-24.2519 -18.5403 392.15 110 72 3
39.8807 67.7823 392.216 122 89 28
44.9513 45.9512 392.17 113 74 0
-15.0768 -5.73589 419.728 89 64 14
38.8815 69.5516 392.551 120 88 28
31.2613 80.1805 392.616 133 100 27
29.6634 18.0108 392.099 120 78 9
13.8365 80.0632 392.931 116 87 22
42.9851 55.752 392.419 115 79 20
-34.3234 0.269085 392.467 115 82 18
-3.85323 43.6681 420.214 111 81 19
1.96216 -17.7676 392.387 95 67 8
-30.3849 -13.457 398.054 109 75 6
-34.7005 5.1387 392.252 112 79 15
-37.2067 72.7231 392.34 102 71 8
-4.07204 46.2589 419.978 117 83 23
-9.84863 -19.9305 392.994 103 72 5
-4.28094 45.4826 420.19 114 79 14
-3.91897 44.4009 420.066 111 78 20
11.7971 69.529 420.011 107 77 23
-5.65929 36.6457 420.038 115 78 18
-33.5586 -1.2598 392.811 101 69 6
10.8582 2.65343 392.755 114 73 1
-29.778 -15.5515 392.753 118 83 16
-23.8682 -6.27391 408.695 111 74 12
-27.9098 -9.78827 398.077 121 85 17
-33.4536 -3.62095 392.541 108 78 19
38.8992 54.2541 392.153 100 63 0
10.4747 -5.12891 392.704 113 75 6
-22.9931 -10.4251 408.86 109 76 1
11.6535 4.42842 392.112 109 74 6
-36.54 71.4987 392.472 114 81 15
39.3348 55.8656 392.388 96 61 1
10.8185 -3.14349 392.468 113 76 9
-30.4209 -7.41843 392.441 103 70 10
14.8007 74.0752 420.093 125 96 35
28.9292 79.342 397.737 136 103 46
-3.02431 -18.8093 392.234 101 69 5
11.8307 71.0503 420.104 121 88 28
11.7022 -16.1012 392.43 109 73 6
-4.39787 39.4848 420.1 117 81 22
-11.0743 57.9104 397.986 125 91 30
-38.4863 77.5038 392.325 117 86 26
43.1677 40.74 392.466 109 72 1
33.9957 77.0404 397.186 125 92 37
10.1379 80.1041 392.218 124 93 35
-6.70647 35.0214 420.271 104 69 1
-38.0345 78.4793 392.151 115 84 22
-25.3646 47.1555 419.955 115 81 15
-21.453 -17.9161 392.631 103 71 7
-17.7002 -18.822 392.91 108 74 5
43.8609 62.4672 392.063 135 97 35
11.3308 68.9798 420.159 116 83 32
-28.6205 72.324 398.25 69 49 1
-31.2885 21.3968 408.873 103 70 0
43.2782 63.0751 392.26 135 96 33
38.5042 70.2461 392.611 123 87 26
42.9104 63.0057 392.984 131 94 33
35.468 45.7985 397.764 101 65 1
-12.4383 62.9738 392.49 102 71 13
-33.8443 43.138 392.079 106 74 7
-20.7157 80.0337 392.572 123 93 30
36.7343 48.478 397.717 100 62 1
46.2579 54.4361 392.341 124 86 21
37.6031 50.775 397.85 100 65 5
-19.5236 79.6578 392.362 121 93 36
-28.912 71.6406 398.232 74 52 1
26.0353 15.1636 392.543 102 67 10
-32.4483 -5.49685 392.384 101 73 7
-15.1615 19.7136 418.608 120 84 17
-13.2539 65.2585 392.468 105 72 12
-14.1647 -19.2439 392.31 108 73 4
24.0619 79.596 392.089 109 81 27
41.1253 65.7574 392.501 128 94 39
-33.8976 45.1648 392.202 96 66 5
45.2191 48.5408 392.301 117 79 3
-13.2001 -19.3934 392.448 110 75 4
36.6352 73.5997 392.622 118 87 30
-30.8131 64.171 392.247 116 84 24
-0.0482122 71.6899 392.242 89 60 0
40.4229 51.4707 392.34 97 59 3
34.2726 76.6101 397.911 120 90 27
26.2605 80.1804 393.205 135 101 44
0.538955 72.1327 393.129 89 59 7
39.3083 65.7712 398.353 110 82 19
12.4835 72.3072 420.167 116 86 27
-34.7667 17.002 392.391 117 85 23
36.4563 72.7369 397.929 117 90 36
9.95832 75.3351 420.171 132 102 39
42.6016 51.6154 392.213 110 74 1
20.1719 25.611 392.226 99 68 2
38.4356 68.4769 398.108 115 84 27
-15.0301 71.6586 392.268 104 73 14
21.5601 17.9591 392.427 105 70 2
-4.73215 34.7274 418.662 112 73 5
20.1384 26.3816 392.4 107 75 13
-23.8924 35.8365 420.115 114 83 20
3.08145 78.185 392.566 104 74 20
34.0851 77.7255 393.199 120 88 36
1.53074 75.8423 392.44 93 63 7
-6.75563 32.6994 420.025 110 73 13
-29.7688 70.799 398.144 84 58 1
35.7191 25.8791 392.272 114 76 5
17.9311 26.6752 393.441 88 59 12
32.6648 21.529 392.2 119 79 15
10.6682 75.151 420.004 130 97 37
36.0946 26.5071 392.274 116 76 1
7.49189 72.8863 420.078 122 92 29
39.6007 58.5011 397.907 104 68 1
11.0506 73.5898 420.213 128 97 39
-33.3391 26.7603 392.537 104 74 10
20.3259 23.5834 392.192 99 68 1
40.3985 32.4521 392.419 95 57 2
31.4919 20.4058 392.193 114 75 2
5.60541 -18.404 392.32 102 69 13
3.59214 78.7666 392.589 108 76 18
-8.93869 28.0121 420.081 114 79 13
43.2955 50.9854 392.487 111 73 2
-33.2372 27.5245 392.538 103 72 3
15.3896 24.1154 392.918 89 56 2
43.42 51.7672 392.362 112 76 2
14.8303 23.5473 393.604 90 57 2
42.0085 36.0797 392.327 105 67 1
21.0796 79.3611 398.228 88 55 6
-31.1015 -14.3492 393.413 120 82 18
2.16852 76.9537 392.494 100 71 14
11.9493 10.7505 392.31 111 73 3
-12.9546 -7.16742 418.75 84 63 15
9.25465 75.4343 420.126 124 95 33
-38.6078 74.2461 392.641 111 78 8
2.38958 -2.71387 420.293 116 81 22
-16.3863 75.544 392.354 106 75 16
-12.3906 21.0342 420.296 113 75 5
43.4333 52.6496 392.306 115 79 9
-24.897 40.1833 420.236 112 83 25
-9.17927 27.3124 420.117 112 77 17
-19.0754 26.898 418.732 119 88 27
43.0396 41.5919 392.799 103 65 0
-4.55679 51.5343 418.827 118 84 21
-33.456 -1.82328 392.319 101 67 14
1.256 75.0295 392.583 92 63 8
39.9897 63.1075 397.831 113 77 11
43.4631 53.8393 392.358 116 80 17
-7.05858 30.4242 419.748 115 78 21
19.6093 79.3359 398.018 1 1 2
-23.5388 -18.848 393.023 110 74 6
-34.0551 -0.825798 392.357 108 74 14
34.949 75.7986 397.183 115 85 25
-5.65692 16.0847 420.074 121 82 9
-33.1428 29.5271 392.43 114 80 24
4.76487 79.5742 392.518 118 85 29
-26.413 39.8121 418.721 117 88 32
-24.2909 60.9984 420.088 126 89 37
39.1908 55.5796 393.28 96 62 0
-6.1219 15.279 420.107 114 77 10
7.95144 71.2431 420.26 119 85 23
-26.5054 41.4014 418.745 119 86 24
-8.21348 -19.7063 392.555 103 71 3
-33.188 32.0061 392.477 110 78 12
22.5229 15.7076 392.415 103 68 2
-33.2331 32.9638 392.475 106 71 4
-6.65781 -19.5641 392.44 101 69 4
-34.0321 2.40695 392.357 112 78 10
32.0775 32.9597 397.868 114 76 15
6.62997 68.3405 420.129 113 79 8
-28.4842 -16.6759 392.443 118 81 15
34.8049 41.7902 397.951 98 60 1
43.8195 43.8784 392.662 113 74 5
-38.8533 75.0499 392.494 109 77 2
20.818 31.5817 398 105 67 3
-24.2439 52.0725 420.041 112 80 16
39.9756 61.9795 397.823 111 78 9
-3.66169 -19.1689 392.695 100 68 4
22.2195 79.4114 398.253 123 94 32
30.7738 20.6066 392.444 113 76 12
-31.7113 2.92123 398.163 113 78 8
-23.0324 80.2788 392.953 124 95 39
-16.1817 58.258 398.134 107 74 4
-34.8727 20.2662 392.492 102 69 6
-24.7638 50.0318 419.995 112 78 17
22.2296 33.2211 398.165 106 70 3
6.04607 74.6038 420.148 127 93 27
-0.206942 -18.2613 392.721 97 67 5
0.387936 -17.9622 392.395 102 69 6
12.0861 14.6307 392.26 103 68 4
45.8593 57.6743 392.472 122 86 10
31.853 21.3041 392.27 115 77 3
23.3587 15.1493 392.282 103 70 2
-33.8705 22.594 392.318 111 78 13
12.5267 15.6175 392.714 104 72 12
-16.8829 58.3178 398.095 103 71 13
-25.6731 47.8026 408.511 115 81 15
-37.6057 79.2549 392.451 121 87 30
-18.6042 79.0033 392.486 119 87 29
46.1652 55.2156 392.423 121 87 19
-8.8845 26.6391 419.955 109 74 11
-37.1175 79.6677 392.821 121 91 29
46.155 56.0449 392.412 127 87 17
-21.23 -0.127159 419.792 117 81 15
-36.8105 79.9481 392.277 120 94 39
-1.49647 66.6074 393.024 89 60 4
46.1245 56.9521 392.383 122 87 22
15.1237 79.3496 398.077 79 52 0
-31.9653 69.037 419.715 104 73 7
38.5079 53.5059 397.132 96 60 0
-32.5392 1.98405 397.616 106 72 0
14.0479 18.6459 392.967 92 58 3
-31.5767 30.283 408.783 114 86 24
14.4203 79.487 397.954 110 83 20
34.066 23.1482 392.279 111 72 9
-15.073 23.2483 420.17 113 75 5
14.0872 20.175 392.696 91 56 0
40.1406 67.1921 392.973 121 89 28
4.5951 69.6972 419.997 112 77 21
20.8166 23.5226 392.91 105 72 1
-34.1017 38.7403 397.956 110 76 13
-33.8075 39.6203 397.824 109 75 8
41.3953 65.1063 393.041 130 92 34
34.625 23.8784 392.323 115 74 1
-32.6967 49.9357 392.49 83 56 0
-28.3046 50.6477 398.161 109 79 17
-33.0195 68.2912 392.595 105 73 11
5.28819 73.9924 420.109 115 87 28
33.0287 22.41 392.318 113 73 2
33.7552 78.2429 392.57 120 92 27
-0.310294 69.6383 393.009 89 60 4
34.89 24.6461 392.351 115 75 4
35.2854 25.3294 392.321 113 75 6
-0.207854 70.5949 392.581 88 58 6
-36.5228 74.3703 398.165 112 80 19
38.7035 29.809 392.426 92 54 1
33.2201 79.0474 392.358 116 88 24
39.9307 31.7047 392.558 93 56 1
39.2057 30.6821 392.81 94 56 1
37.2 27.9868 392.64 94 60 1
37.3035 72.4181 392.889 118 86 26
-11.1463 59.9067 392.841 111 77 18
40.9017 33.4326 392.353 96 59 2
-30.9049 58.3149 392.344 108 73 22
-5.86688 58.7796 392.578 106 71 8
-2.24133 65.0176 392.663 90 60 0
10.3771 1.48422 392.42 119 84 19
-30.5419 60.1753 392.716 111 80 21
-10.1941 58.6382 392.482 112 79 5
38.7073 52.7904 392.483 100 61 0
9.36134 13.1444 397.83 105 67 8
-31.3242 66.1944 392.801 113 79 7
-13.0348 64.296 392.982 105 72 11
-18.8591 58.3153 398.198 103 68 9
7.8119 70.476 420.239 114 81 20
18.2684 28.9056 398.135 103 65 4
16.7297 79.6128 394.05 3 3 3
43.6205 54.9994 392.577 119 82 7
-27.3027 0.263619 408.551 108 75 18
4.4483 5.54861 408.671 101 62 2
20.5508 79.5083 392.308 4 4 5
21.462 79.588 394.117 4 4 6
19.0782 79.6693 394.377 3 3 3
-26.0965 46.6339 408.551 115 85 22
19.6623 79.681 394.971 2 2 2
43.4376 42.4664 392.684 110 72 0
43.7578 43.1434 392.572 109 69 1
12.0307 9.9122 392.877 114 76 16
9.90509 -7.11196 392.599 122 83 0
-25.179 -18.6956 392.804 112 76 12
35.9365 74.7986 392.912 118 87 37
7.52125 -18.6188 392.708 115 76 13
38.892 54.3435 392.992 96 60 0
4.96362 68.7841 420.009 115 83 25
11.7545 11.6621 392.463 108 72 0
-34.4378 21.4456 392.526 109 77 13
-38.671 76.9367 392.704 117 86 22
8.42872 -18.5301 392.91 117 80 17
11.3066 12.2976 393.397 111 74 2
10.8897 -10.9801 392.66 106 72 0
-33.235 -4.42431 393.008 102 70 6
11.5766 13.0236 392.587 109 72 3
-34.8304 15.809 392.619 120 87 25
11.8909 -12.7126 393.126 113 78 15
-7.3669 -19.6087 392.46 105 68 3
6.20356 79.858 392.907 122 91 31
7.85895 79.9008 393.414 123 94 41
4.54016 72.1679 420.039 105 78 23
-34.752 72.6448 398.169 107 78 15
10.749 -3.47534 393.166 112 78 2
10.764 -3.99848 392.597 112 78 8
28.1551 16.1643 392.753 113 78 21
9.12531 11.7822 397.708 112 74 3
8.70499 80.0009 392.852 127 95 40
-30.3143 67.2932 420.186 102 73 16
-33.7664 24.6278 392.731 112 79 13
9.15538 10.9383 398.094 112 74 6
-36.0192 80.0903 393.048 129 97 38
9.70306 80.0262 392.875 124 96 39
-33.4666 25.7025 392.46 109 78 10
-8.0148 23.2159 420.251 105 67 0
-0.445957 -6.43562 419.934 84 51 5
-33.8243 26.0211 392.976 110 75 13
10.9251 80.0987 392.64 125 94 40
-4.54057 -19.2971 392.549 103 68 5
0.0248225 10.0538 420.196 101 68 10
14.8491 23.4599 392.598 92 61 9
-35.055 80.3466 392.582 130 96 37
-7.97972 24.3107 420.058 104 68 0
39.8619 56.9801 392.864 103 66 8
-10.8608 -7.75905 420.151 76 54 14
9.29109 10.0432 398.018 110 75 3
-34.3992 80.4655 392.354 126 95 42
-13.4245 20.753 420.188 116 81 13
-7.5984 22.4065 420.122 105 68 5
11.4361 3.73976 392.548 113 74 4
-29.9571 47.8274 397.871 113 80 19
-33.1734 28.7622 392.588 109 76 26
24.7456 80.276 393.268 126 96 27
-29.8362 -9.568 393.155 108 76 8
-22.4258 -18.6405 392.952 106 73 8
17.6304 26.362 392.732 84 56 7
31.0622 21.2207 392.593 112 75 12
-33.4884 31.3528 393.124 115 80 24
12.0084 6.12867 392.621 116 78 8
-13.1825 18.1325 420.145 115 79 20
5.81279 9.57447 408.686 107 71 10
18.3731 26.8877 392.892 76 54 3
-7.92157 64.3591 419.939 112 81 23
-20.7327 58.8398 398.1 95 63 8
-19.1958 79.1274 392.897 118 89 37
-21.5686 -18.4999 393.408 103 75 17
-29.8437 -8.24607 392.598 117 86 24
-9.22555 -8.45986 420.16 93 65 6
32.5214 22.9418 392.434 119 81 12
41.9755 50.9727 392.406 110 74 0
-34.401 1.20011 392.873 111 81 18
33.755 24.3036 392.461 121 79 2
-33.0684 48.7317 392.438 86 58 10
-15.9748 24.9276 420.238 112 79 19
-32.8141 80.4285 392.6 119 91 32
-13.1244 18.9154 420.188 117 81 22
-1.16934 67.9369 392.611 87 58 2
-32.1853 51.6081 392.475 82 55 1
2.5961 77.478 392.622 104 74 13
-15.6344 20.9338 418.586 114 84 21
-27.385 52.9316 397.968 106 74 12
-31.0588 76.7546 398.176 93 66 16
-13.7309 19.0586 419.747 115 82 11
22.1605 16.7452 392.73 105 70 1
-15.9421 13.7414 419.989 106 74 4
34.4943 25.2517 392.63 108 72 5
45.0495 50.3083 392.483 115 81 10
-31.7787 53.4461 392.539 87 59 1
1.87935 75.7928 393.062 97 65 10
-34.8409 69.9536 392.712 105 73 13
-34.3482 4.2223 392.58 109 77 22
-34.1529 69.6049 392.772 104 73 13
45.363 51.6305 392.455 121 81 12
-5.46903 55.2514 418.68 114 80 11
-12.7232 63.6797 392.603 104 72 13
-31.1493 -6.90687 392.607 99 70 10
2.12179 6.43681 419.912 104 67 3
-29.5917 48.4933 397.957 113 81 17
45.8602 53.4168 392.447 124 85 16
-20.0708 30.2606 419.716 112 78 14
23.8132 16.7148 392.883 110 75 13
-31.9123 76.9085 398.218 93 66 17
-28.5408 73.917 398.218 74 50 6
-29.3482 74.7574 398.292 79 54 6
24.1168 15.6605 392.599 115 80 14
45.4415 52.7015 392.511 123 84 14
41.347 34.7534 392.515 101 64 1
43.1137 39.9202 392.465 108 68 1
19.5833 27.0698 392.373 89 63 11
-30.4209 62.1544 392.889 115 84 25
-29.5918 -17.9156 398.201 119 77 9
33.4488 23.6031 392.372 115 77 2
36.531 27.1938 392.456 96 61 7
45.3471 58.3192 392.722 120 84 12
-2.80284 63.6462 392.638 92 61 0
-29.5028 75.6234 398.174 85 60 8
1.55426 70.4942 397.416 88 60 5
-35.6149 8.26419 392.472 124 89 22
-35.0237 14.5896 393.207 108 76 16
-35.528 9.76554 392.559 120 84 18
-9.38762 58.0111 392.603 114 80 14
-20.937 31.7964 420.129 105 72 12
-13.7671 14.9162 420.26 115 79 8
-24.6506 59.9471 418.78 121 89 36
37.8447 71.4491 392.745 119 86 27
39.2832 68.7757 392.948 121 86 29
44.9986 60.3129 392.51 125 88 30
-28.4211 73.1719 398.25 72 49 2
-12.8287 20.0851 420.274 117 79 12
32.7891 23.641 392.866 101 67 10
-6.32932 56.6815 419.835 114 82 19
-35.0021 77.5314 398.163 100 73 22
-21.7051 58.6507 398.091 92 63 7
9.56664 5.48658 397.552 118 82 26
-38.8561 75.9714 392.687 112 81 4
-11.4133 -19.909 393.181 104 70 4
-17.0577 75.9241 393.008 104 76 25
2.65276 3.29544 419.913 111 74 4
44.3902 53.2186 392.587 118 81 9
-19.1381 11.6365 420.348 102 72 8
-35.5667 6.38581 392.691 110 74 5
-38.1983 77.9787 392.853 124 90 30
-11.6891 61.0367 393.018 108 75 3
-30.3796 57.8831 393.71 112 77 24
-6.75707 58.3517 393.268 114 78 12
45.1991 53.9345 392.623 124 86 15
-8.40895 -20.0169 393.261 99 67 4
-11.4197 60.4049 393.296 107 76 3
3.4304 3.47945 418.76 102 65 5
-34.8126 12.9993 398.263 113 76 17
-12.0113 61.8415 392.734 105 72 3
-35.4026 12.2916 392.948 121 89 28
28.5743 17.1103 392.937 110 73 6
10.7571 -17.3618 392.727 112 76 10
44.2415 45.418 392.552 113 74 2
-15.6366 72.8765 392.687 103 73 11
3.50283 2.34182 419.952 99 66 6
-27.7555 77.1966 419.872 129 98 40
-28.7245 -8.12635 398.058 116 79 19
39.4698 56.3079 392.99 96 61 0
-31.2129 -3.05685 398.164 111 75 9
29.1325 17.87 392.682 101 66 7
-35.4881 80.0951 393.75 126 97 36
-31.7788 -13.0227 393.051 124 88 29
-34.8615 13.387 392.553 119 87 23
-31.7856 52.3747 392.769 83 55 2
-31.6406 -12.3222 393.515 120 83 12
-18.8648 4.06934 420.014 109 75 2
44.2805 46.5689 392.601 115 77 7
29.6001 18.7616 392.738 103 68 10
31.9683 22.5086 392.616 110 73 3
-20.1225 -19.834 397.415 115 80 20
-6.49424 58.2836 392.563 107 74 9
-35.4598 10.6968 392.668 119 85 19
13.0982 16.2383 392.882 102 69 7
-35.1603 19.1385 392.832 115 83 21
44.4832 47.6153 392.597 118 80 8
12.1144 -15.6297 393.417 114 80 17
4.34542 -18.2744 393.404 97 67 6
30.3782 20.207 392.868 98 65 10
-19.394 30.7879 420.212 100 70 18
-2.8854 -19.0944 392.97 97 65 11
13.7424 17.395 392.996 98 63 1
4.80637 -18.3077 392.893 102 68 6
27.6421 80.2717 392.823 132 99 40
-4.70253 60.0418 392.842 100 70 3
-5.74954 55.9366 418.896 115 80 19
-19.6254 3.42736 420.04 100 67 6
0.981605 -18.0794 392.965 97 67 5
-3.89889 60.836 393.947 102 68 1
3.66188 -18.1178 393.18 94 63 12
-19.6463 -18.1396 392.863 106 77 23
6.18648 -18.5664 392.842 108 71 2
-13.6073 66.0275 392.809 104 71 9
-35.1164 20.8763 392.892 112 74 3
40.6133 50.8149 392.744 103 64 3
41.3398 50.5667 392.636 109 72 0
-33.9956 3.19173 392.869 111 75 7
11.6465 -12.2075 392.622 110 74 7
-34.2158 1.96569 393.012 112 80 18
42.1305 37.9034 392.941 109 69 0
30.5017 80.1894 393.129 133 101 42
10.3906 -10.4317 392.995 102 70 0
-3.12304 62.7757 392.846 93 62 4
-20.4643 7.75081 420.133 121 85 17
-5.04518 48.8128 419.927 117 83 22
-36.3988 27.1694 397.78 111 77 18
-18.8543 5.38665 420.2 118 80 5
42.568 50.3886 392.571 108 70 0
-32.0837 43.5325 397.448 113 78 12
9.61204 -9.08466 392.458 114 80 1
-34.3895 22.1421 392.835 100 70 5
3.48131 78.1315 393.215 104 74 19
39.464 51.0562 392.813 104 65 4
10.4854 2.09066 393 112 76 7
-16.3194 -19.187 392.96 105 71 4
8.96415 -4.04292 397.956 117 76 9
5.33826 12.0778 408.783 101 63 1
5.54301 79.6469 393.154 121 87 30
44.3663 51.2166 392.555 115 78 4
11.6726 4.41535 392.864 112 76 14
15.8863 24.639 392.48 85 54 1
4.11813 73.567 418.746 102 76 19
42.8041 56.958 392.615 116 79 6
-31.1829 -11.3413 393.213 109 76 20
16.0017 24.8029 393.201 89 57 2
-34.1384 39.6376 392.771 108 75 10
-18.7092 -17.886 408.674 120 84 17
44.6355 49.4241 392.63 115 79 8
-23.2924 57.2622 398.227 96 66 6
-30.6972 -10.3926 392.498 105 75 15
25.8347 16.0857 392.866 110 75 4
12.0558 8.98202 392.335 114 76 3
9.80459 15.9214 398.236 108 70 3
-31.4512 19.9805 408.781 105 74 0
38.9831 69.2954 393.372 123 87 26
-33.7396 28.7276 393.269 103 71 5
20.9164 20.7673 392.738 100 67 1
40.6484 57.5607 392.726 106 70 9
3.91031 -1.61208 420.013 98 67 8
41.868 57.6837 392.784 116 80 6
11.8766 80.0631 393.399 124 92 38
-26.4469 45.1357 418.461 112 79 13
-33.5676 44.8148 392.856 105 73 11
-14.57 14.188 420.245 113 78 7
9.43988 -5.03177 397.925 118 78 14
44.1661 52.123 392.514 118 80 3
45.3302 56.2051 392.734 125 90 19
17.4976 69.7344 418.75 126 94 33
-32.39 50.622 392.602 81 53 1
24.1572 79.6579 392.903 108 82 13
-18.6726 29.3616 419.874 109 78 14
-33.2537 47.008 392.846 86 55 1
-38.0972 73.5629 392.89 114 85 20
-28.9744 79.4641 392.643 55 20 0
43.7381 56.0448 392.728 120 84 13
-29.2971 -6.7166 398.194 109 76 9
-33.8661 23.6525 393.082 111 75 14
-27.9566 72.6275 398.144 65 45 0
-17.617 77.4329 392.759 106 75 19
-30.6775 -7.38124 393.096 99 69 8
-10.4415 -20.1076 393.528 102 69 4
-31.3926 19.1618 408.728 109 73 12
-18.8435 -18.4804 392.836 108 75 6
-19.0578 78.554 393.322 113 84 33
-25.9655 44.1715 419.125 108 79 4
-18.3288 -18.846 393.276 108 72 6
-32.6288 80.2393 394.203 129 95 34
11.5324 13.7111 392.759 109 71 0
-25.9596 44.9837 418.933 107 76 17
-33.9221 43.0251 392.98 108 76 12
-25.9407 -19.7482 397.165 119 83 16
-17.4514 77.0351 419.895 31 14 0
-19.9714 76.5569 419.554 8 0 0
-27.8651 -17.1199 392.541 118 84 25
-6.34917 -19.8099 393.141 100 69 4
4.09436 -18.4515 398.1 107 72 4
-14.2721 -20.6085 398.334 112 77 16
-30.2707 -15.2712 393.35 117 81 15
12.1852 -13.5164 392.96 114 82 7
-20.152 79.3217 393.437 121 90 36
-31.4088 -13.7083 392.714 120 84 17
-21.4513 77.2795 419.758 101 79 23
-31.2488 54.3244 392.995 87 59 1
-31.2594 55.2165 392.72 94 67 7
-32.9573 47.8361 392.862 82 56 0
9.92904 -9.86731 393.177 109 74 12
38.5861 52.7984 393.983 98 64 0
38.6815 53.3206 393.076 97 59 0
-36.5444 72.1557 392.87 111 82 17
-3.62255 61.6663 393.037 96 65 0
-35.3382 11.5131 392.648 119 86 25
38.7873 53.8449 394.164 96 60 0
-33.274 33.901 392.834 103 70 7
11.0674 -14.4187 398.09 122 85 14
-15.8496 -20.3684 397.72 110 76 15
-2.50465 56.0122 408.354 104 72 3
-33.4236 34.8125 392.79 102 68 2
34.3808 55.485 408.311 113 78 12
-29.1857 -16.2276 393.134 119 81 14
-28.4251 -17.0176 393.241 120 83 21
-37.8889 78.6401 392.927 124 92 30
-13.9461 66.5831 393.147 104 72 12
-33.7052 36.9458 393.114 106 72 9
-14.1135 67.5167 392.88 101 72 10
-2.46106 64.305 392.838 92 60 0
-14.3491 68.4603 392.755 103 71 11
-32.5002 67.7687 392.998 103 72 10
-28.3709 79.8404 392.856 66 33 2
2.13585 7.20383 419.802 106 70 2
43.8806 50.2422 392.68 111 73 4
44.5343 60.8828 392.706 125 89 25
32.8285 79.3392 393.236 128 97 36
-27.6652 79.7711 392.722 12 0 0
-14.7637 68.9753 393.176 102 72 12
-30.5095 79.7777 392.75 115 81 23
40.881 57.9942 393.429 114 77 7
38.8403 51.5758 392.768 110 70 2
28.8584 80.2078 393.28 135 102 44
-30.4243 61.2951 392.856 114 84 24
44.985 59.35 392.815 116 80 18
35.0355 25.8325 392.851 96 64 10
-4.46149 47.5981 419.824 110 77 11
33.8436 54.9728 408.532 116 78 19
-30.448 63.0111 392.909 112 81 24
-33.3693 73.55 419.761 106 75 13
44.283 54.3751 392.634 121 85 5
41.8592 64.4113 393.055 126 94 38
43.5691 61.98 393.039 129 92 27
22.0816 19.3267 393.16 108 73 2
-23.9647 -7.19844 408.609 116 81 25
41.4067 36.0313 392.8 113 72 1
7.8855 69.4124 420.07 116 83 19
25.4731 80.1998 393.55 126 94 36
16.5554 79.4553 397.027 0 0 0
7.6457 23.9467 408.548 103 66 1
-0.484838 68.7702 393.34 89 60 5
39.6299 68.0816 393.253 121 87 33
-32.3756 4.37565 397.933 107 72 8
10.7786 -2.47936 393.176 112 74 2
-32.0516 1.60018 398.226 105 73 0
21.1046 22.8523 393.311 107 72 7
-24.7576 37.2243 419.853 113 76 11
-8.25499 57.8045 392.912 119 85 18
10.7485 -1.53873 393.043 115 78 6
0.807443 73.4026 392.839 92 63 6
13.9538 66.9913 418.497 124 88 29
14.0687 22.1376 392.825 98 64 1
23.0884 16.1633 392.862 110 71 1
8.90252 -7.57821 398.06 125 85 7
8.39659 68.6846 419.958 121 82 22
-32.6613 -0.584426 397.665 105 74 8
33.2714 24.2186 392.976 102 66 5
-34.3839 6.94358 397.891 105 71 0
44.64 55.1034 392.729 121 86 12
-32.5302 1.06733 397.98 112 75 5
44.53 55.8396 392.798 123 86 19
-15.8053 23.8856 419.922 105 71 1
11.6917 14.344 393.007 110 75 4
45.3615 55.1471 392.676 122 84 6
-20.3848 10.8416 419.7 106 75 15
-24.0725 35.1902 419.799 116 86 30
21.8352 18.7634 392.844 110 74 12
11.8869 9.23764 393.089 111 74 3
45.2114 57.2899 392.814 126 90 18
-25.5505 -18.9597 393.806 115 75 2
43.5874 44.5774 392.804 111 74 0
-7.86718 29.3698 419.973 116 80 13
-27.8979 -10.4001 397.721 122 86 25
-35.8366 6.90597 393.283 104 70 1
5.31644 -18.4941 397.932 109 73 4
-20.6022 10.0974 419.893 110 76 7
41.7343 36.978 392.924 109 66 0
8.06606 74.3099 419.853 116 84 23
-36.2132 8.16784 393.786 107 69 1
21.5156 19.8421 392.891 111 79 15
0.234632 71.1408 393.167 88 59 2
-29.1056 -7.5532 397.887 111 80 19
-35.1126 13.7862 393.132 115 83 20
-36.0189 8.61171 392.948 117 83 19
33.9726 52.9521 408.577 117 80 27
43.353 45.5862 392.992 113 74 1
-15.9359 -19.5628 393.762 104 71 4
-24.8752 50.8248 419.72 114 84 16
5.37425 74.6462 419.881 113 85 28
-31.7059 51.6872 393.11 105 73 9
42.439 38.7262 392.857 113 71 0
43.5448 46.2477 392.991 109 73 2
-30.3617 -10.3337 393.239 102 71 10
-6.3962 15.9555 420.063 105 69 9
11.1026 -17.222 393.482 109 75 10
-24.0084 80.3978 392.732 121 93 36
44.5224 56.7141 392.902 124 87 19
-10.0859 75.4579 419.414 108 81 32
-8.44451 28.7003 420.068 116 79 11
44.028 48.5832 392.827 111 75 7
10.5427 -4.51931 393.31 112 75 5
39.4024 31.3025 393.091 97 65 6
-11.3834 77.3133 419.487 114 84 28
-29.5612 41.9231 408.563 113 78 13
-28.7612 75.2565 398.077 85 59 11
-13.1228 -19.7423 393.207 105 70 4
-12.1783 -19.9688 393.577 101 68 3
-21.2309 29.9939 418.942 111 79 3
7.26551 -18.3717 398.068 110 77 10
-30.9581 55.1885 393.363 109 75 5
1.67685 75.021 393.356 91 62 11
-34.3379 0.394773 394.249 106 70 15
7.06782 74.0737 420.016 119 91 33
30.7285 20.9095 393.125 96 64 3
2.39401 76.5274 393.265 98 68 13
31.4332 21.8916 392.792 103 68 6
-30.866 -16.6163 398.061 114 80 18
-22.812 33.5276 419.986 112 80 11
-20.684 -17.9618 393.117 104 77 30
11.8324 66.8182 418.601 104 70 10
40.7902 34.2647 392.88 109 72 1
30.0254 19.7417 393.269 101 64 5
-18.0662 12.9251 419.965 100 70 10
2.73546 -17.9731 393.009 93 66 10
-30.7233 57.1268 393.275 107 76 15
13.9805 75.2236 420.031 133 100 38
-35.122 7.88136 397.81 111 78 6
19.0547 27.3156 392.8 88 62 10
-35.3703 5.57881 392.976 109 75 4
24.6159 17.2677 393.392 121 82 16
-30.7518 57.8895 392.931 107 75 12
-25.2758 48.4972 419.816 115 84 23
42.3929 63.8252 392.85 131 93 38
-32.4824 77.5956 398.083 96 66 17
-33.9025 37.5688 392.843 104 70 0
-21.0575 9.12933 419.566 122 85 25
-27.7884 6.31234 408.597 95 61 2
1.91604 -18.0216 393.138 98 68 6
-30.4828 59.4479 393.047 108 78 11
10.7387 80.0008 393.543 125 92 36
26.7167 15.9497 393.048 106 73 16
20.5529 26.7821 392.952 115 78 15
19.9913 27.5165 392.867 106 74 19
-33.6301 27.9904 392.988 104 71 2
33.9123 24.8657 393.036 98 63 2
24.677 16.2975 393.136 120 81 13
-16.0842 21.8135 418.623 118 79 7
22.1991 17.8292 393.15 110 76 13
-34.0454 40.1876 393.303 106 75 15
12.7778 80.2425 393.511 122 90 32
25.0567 15.438 392.889 111 72 4
40.9294 49.8763 392.94 114 78 10
33.3037 78.8385 393.134 126 95 36
