ply
format ascii 1.0
comment Created by Open3D
element vertex 1416
property double x
property double y
property double z
property uchar red
property uchar green
property uchar blue
end_header
24.5578 38.7418 405.068 88 56 2
-26.5487 -15.2291 404.938 115 80 10
28.0627 71.2473 375.931 103 68 8
-35.7238 29.777 405.148 97 67 8
-16.3055 42.7427 375.53 108 69 2
-3.22172 19.2274 417.083 116 76 2
-19.7565 34.4326 375.634 121 83 16
-14.0869 19.8376 376.063 106 68 4
-13.7426 20.8756 375.751 95 58 1
-16.0019 37.5901 375.745 123 86 18
12.3522 46.4033 415.52 120 83 15
-25.8168 1.07111 410.468 97 63 0
5.18928 80.9545 375.581 130 94 23
6.75714 77.3341 405.18 102 70 13
-14.1611 42.2619 375.577 116 78 3
-15.4899 43.5433 375.589 114 76 6
-36.8044 27.6226 404.418 113 77 16
-17.1208 17.7069 375.79 102 64 0
-21.3149 45.3929 375.581 123 82 14
-16.4135 43.8029 375.549 118 78 4
-7.23326 6.30091 375.639 105 65 2
-2.99379 77.1412 375.769 125 89 28
11.554 79.2003 375.781 115 83 27
-1.19641 72.3487 375.75 107 73 11
-13.1356 4.52664 375.737 96 63 0
-10.0014 33.0703 375.834 113 79 11
-20.7885 44.685 375.717 116 78 14
13.4436 78.9778 375.729 113 83 23
23.3545 76.0739 375.848 113 77 19
-31.7275 70.6622 417.02 112 78 13
-10.3854 0.668408 375.821 120 87 39
-10.7646 1.61808 375.643 108 72 14
-25.5909 -15.9706 405.071 108 76 10
-25.8025 -7.90843 405.079 115 79 8
-5.14804 11.5019 375.687 101 64 2
-6.94608 9.83976 375.476 104 66 2
-29.6375 45.9631 405.138 119 83 22
-4.66442 14.6605 375.477 103 66 4
-12.1806 -18.5576 410.168 105 76 13
-12.8847 -18.1886 410.394 114 84 19
-16.9631 33.948 375.594 118 81 12
5.42248 75.9312 404.537 102 69 14
-5.15563 12.7088 375.624 104 66 2
2.95023 45.0594 375.955 109 70 6
-19.3056 54.2579 404.963 109 78 19
-2.63323 45.8681 417.656 110 73 4
-3.45836 13.3286 375.574 107 68 1
7.60107 62.8415 375.962 123 85 16
5.68648 63.2675 375.991 109 69 0
5.37398 64.1433 375.577 117 78 1
6.82468 63.4945 375.766 108 71 7
-26.6777 71.1354 430.906 119 87 24
0.977224 13.0539 417.002 110 74 1
-17.3648 20.6066 375.712 117 78 0
-13.0923 6.96876 375.778 93 61 6
-3.19597 14.5888 375.535 106 67 1
-8.53164 3.44633 375.491 103 64 2
-27.3027 45.7236 410.475 122 87 18
22.2072 42.3549 376.072 88 55 1
37.7391 60.8119 404.531 117 83 20
-25.5603 75.1928 430.722 113 85 26
-8.18568 2.32094 375.736 109 70 3
-26.0315 70.3403 431.06 112 80 17
29.8649 50.6671 375.569 89 55 1
-8.80356 2.79309 375.703 101 65 1
-13.41 16.2118 375.585 115 78 5
0.535043 79.6836 375.937 126 91 37
1.19384 80.6463 376.6 127 96 37
-25.9745 -11.5549 405.013 109 73 3
-26.2763 -0.529118 410.514 109 74 9
1.25818 80.2781 375.898 128 95 37
30.8182 52.912 375.703 92 55 1
-13.0973 10.4253 375.613 105 68 0
-27.36 45.0296 410.442 125 88 17
20.6187 77.0612 375.48 114 82 23
15.2201 78.4112 404.643 117 88 38
-21.7882 41.4029 375.697 120 87 20
-13.0848 9.53324 375.781 97 63 5
-2.60249 14.9891 376.021 100 60 1
-17.2686 48.7726 375.666 124 87 4
-16.2019 -18.8316 407.996 117 84 26
-2.58803 46.1633 416.858 109 76 10
-18.0724 40.5104 375.684 121 85 21
-2.96903 13.9402 375.709 108 68 1
-2.49201 13.6349 376.186 99 63 1
-24.6021 5.19421 410.715 99 63 0
-34.2744 22.7749 404.721 114 78 23
-32.1107 70.2351 417.428 113 79 12
-16.2664 47.293 375.725 124 84 5
-15.1488 40.7716 375.804 101 64 3
-21.8407 47.7293 375.603 125 88 8
-20.9661 41.7285 375.696 121 85 18
-16.3257 13.2976 375.695 93 57 0
5.80802 4.51919 408.275 93 57 2
-25.3079 5.4771 410.19 99 61 3
-3.95435 75.0666 375.985 112 78 16
-24.3891 -16.8303 405.053 107 76 15
-2.64165 16.8806 375.78 100 63 1
-16.7335 47.831 375.704 118 80 10
31.7538 57.6847 375.679 93 61 1
-18.2887 44.623 375.697 123 85 20
34.2739 47.0312 404.96 99 61 1
-23.2735 69.4338 430.894 117 90 30
-24.0978 69.4126 430.919 119 91 35
-12.1365 38.4805 375.736 115 76 2
-18.1807 49.4703 375.701 122 84 18
-16.4462 14.2037 375.679 94 59 5
12.8904 45.0259 415.454 120 82 8
-12.3649 39.9066 375.837 116 78 7
-17.2456 15.5531 375.715 95 63 0
-16.9461 14.6879 375.671 101 63 1
-18.1011 43.8377 375.802 113 74 10
-17.2804 43.0309 375.855 106 72 6
-22.6208 40.104 375.788 125 87 18
-21.8946 50.0727 375.808 122 84 8
-1.68119 77.3356 375.678 117 86 19
-18.8194 50.2965 375.744 119 85 11
27.2561 46.7822 375.571 88 55 1
-0.904974 77.3113 375.888 124 87 23
-20.8412 49.7276 375.719 127 90 37
-17.2657 44.2002 375.674 118 81 3
6.3189 -8.69508 404.974 111 72 2
-22.3893 45.6655 375.807 122 84 8
-10.4304 32.5051 375.718 112 77 2
13.1655 39.33 375.67 88 58 2
-21.473 70.776 430.937 125 91 43
6.8279 4.41834 405.066 105 66 8
-3.67511 51.1481 417.117 114 80 21
-24.1817 -3.65255 410.291 98 66 6
-16.1312 33.4318 375.702 122 84 5
-26.146 52.7136 417.295 111 79 11
7.31034 3.70618 404.797 103 66 8
-8.80968 24.8749 375.714 114 74 2
16.9057 39.9323 375.988 88 54 1
-19.7216 50.1959 375.748 113 77 13
-15.5316 34.6734 375.751 122 84 10
-20.3898 50.2026 375.958 120 84 18
-8.28343 23.4162 375.889 116 79 18
5.00977 6.91606 404.658 124 83 10
2.21997 47.9694 375.852 115 77 7
18.6687 36.2527 404.958 100 66 3
5.73244 41.2696 375.651 101 62 2
-15.5127 35.4764 375.709 121 83 20
-21.043 71.4211 430.662 122 92 40
-14.413 12.9983 375.79 103 62 0
0.198086 24.8356 375.796 107 67 1
27.5928 78.2434 404.964 128 96 35
33.0465 58.7365 410.488 120 86 23
-32.6192 41.9088 404.496 120 85 29
-25.2376 58.5812 417.252 113 80 22
31.215 54.2356 375.713 89 57 1
26.8809 78.4661 404.299 130 99 43
-8.59031 58.8435 405.162 98 66 0
-21.6439 36.3668 375.722 123 87 19
-26.4859 34.9484 416.934 115 83 18
19.9215 41.2621 375.837 87 55 5
-6.64183 8.9886 375.717 102 64 6
-7.14051 20.4515 375.867 103 68 2
-21.9306 37.7562 375.683 123 87 10
-22.503 69.7184 430.921 114 89 35
33.3645 45.5243 404.543 98 61 2
-14.6328 70.2063 410.516 111 81 21
-8.69077 31.6254 375.643 111 75 1
-21.0511 35.6988 375.673 122 84 16
-13.8679 21.6676 375.882 93 58 1
19.4954 77.6496 375.6 118 86 22
-21.2068 34.9567 375.784 119 81 3
19.1197 78.2087 375.957 119 85 26
-8.47664 29.744 375.598 111 70 1
25.3574 74.6209 375.975 109 75 11
23.7548 43.1719 376.35 85 54 3
-8.15927 21.3544 375.76 116 77 1
-22.2322 36.9975 375.794 123 85 8
3.14958 66.893 375.854 115 74 6
0.301089 21.6712 375.816 101 65 1
-8.00412 30.9289 375.741 112 72 1
-7.88859 32.2022 375.78 114 74 5
28.7947 70.2477 375.986 105 70 8
-21.4898 37.1571 375.629 125 86 12
2.12262 67.9377 375.873 109 76 6
6.59745 27.477 410.245 114 79 20
-1.87407 39.2936 417.001 116 76 15
-18.0825 19.5631 375.919 104 65 0
-16.9063 33.0573 375.703 121 84 13
-21.7973 46.2075 375.76 119 84 15
12.5926 79.2204 375.89 118 83 28
-4.82576 24.2551 376.151 93 55 1
-21.7413 69.5044 430.81 113 85 27
-11.7917 30.3792 375.715 104 68 1
-4.58579 13.1633 375.72 102 65 1
-13.8597 17.7375 375.84 118 80 10
-14.0095 24.0853 375.935 101 65 2
31.8663 64.9644 410.552 128 97 37
-10.3865 -19.0089 410.185 114 83 15
14.1607 79.125 375.866 120 88 32
-26.0757 53.3753 417.088 111 80 16
4.14033 66.1936 375.857 116 80 10
-3.06648 25.4248 375.931 93 57 1
-3.72901 12.3866 375.739 106 65 1
-11.6042 -20.5857 404.842 119 84 9
20.2116 77.9432 376.039 118 85 27
23.2603 78.5104 404.02 130 98 44
-22.1326 39.2223 375.682 122 88 11
22.7943 78.4332 404.522 128 99 43
6.41597 55.11 410.611 104 72 7
-15.9312 19.8117 375.89 116 79 0
-18.2615 32.479 375.821 124 84 17
24.5366 74.7074 375.568 111 76 19
0.880016 22.8924 375.782 103 63 1
7.04803 17.8568 407.934 115 78 1
22.1752 78.3593 404.994 128 96 41
-7.19306 4.9102 375.83 110 72 2
-1.895 40.2015 416.907 116 80 13
-2.82597 12.9684 375.917 106 69 1
-17.9144 33.4323 375.641 122 84 14
13.8415 44.8672 415.61 126 85 0
-30.1923 13.1384 405.099 102 67 0
6.98257 24.9463 410.286 108 65 1
-21.0374 -10.9796 410.329 111 81 18
8.28522 -11.9454 405.073 120 79 1
-7.97147 1.56664 375.94 112 72 5
0.707369 -18.1321 404.628 112 74 15
-7.50993 2.65358 375.929 105 72 7
-7.84454 3.64934 375.566 108 70 4
-10.5253 67.2161 410.279 116 85 25
7.71009 59.858 375.852 108 71 9
-16.5634 38.4635 375.662 123 85 13
6.3448 58.7478 375.981 100 66 0
26.5811 75.8283 410.212 119 90 31
-13.1058 8.71845 375.885 102 71 11
6.94065 -1.0774 409.911 100 63 2
6.82233 26.2506 410.13 104 68 1
-0.900186 24.2371 415.597 97 62 2
-0.980239 60.9734 405.036 89 58 0
-8.8054 32.8515 375.929 114 80 1
-2.92154 32.7746 375.806 115 73 1
-20.2096 33.757 375.785 122 84 16
-0.62047 32.4934 375.755 111 72 2
-1.06274 33.2618 375.783 114 75 4
-20.0165 32.3804 376.002 118 77 8
-13.2736 3.72792 376.006 96 63 13
-3.07793 31.3105 375.804 111 73 2
-3.39337 33.8986 375.919 112 73 4
-12.4324 30.1529 375.865 118 83 13
-12.1167 37.7518 375.805 112 73 3
-3.82555 31.7387 375.861 112 74 2
-1.22976 34.1207 375.852 115 76 2
-1.80444 31.302 375.748 112 75 2
-11.3994 31.994 375.753 115 79 8
-12.4365 31.4254 375.863 106 71 7
-1.87117 32.3124 375.752 114 77 1
-14.8785 11.818 375.887 94 60 5
-2.61189 32.0035 375.77 113 72 1
-21.8251 35.45 375.859 121 83 11
-25.033 69.4003 430.851 116 88 29
-13.6289 26.793 375.921 100 66 7
-9.57223 0.331539 376.066 101 66 5
-11.6825 36.2801 375.986 110 70 1
-21.2321 34.0723 375.925 122 83 8
-9.74178 1.11614 375.757 109 75 19
-2.05446 29.2912 375.882 107 74 1
-2.9317 30.3864 375.835 111 75 3
-34.0897 33.6401 404.697 113 76 14
-9.05204 1.44648 376.037 106 67 9
0.276332 32.2611 375.789 115 74 1
-8.47731 24.1212 375.913 114 76 2
-26.6963 49.008 404.804 112 80 22
-11.4799 38.1072 375.855 118 81 11
-13.0591 2.9331 375.859 102 67 4
-21.3385 44.0671 376.172 121 83 9
15.8218 31.4629 404.422 109 73 12
-4.01029 32.5702 375.896 110 75 2
-15.3835 12.3159 375.783 95 61 4
-20.0777 33.0848 375.878 117 80 6
-33.1784 17.8855 404.012 95 66 9
-8.41174 25.3098 376.17 113 77 5
0.72439 31.543 375.823 116 74 1
-13.2937 38.4706 375.957 100 63 2
-7.92852 30.2523 375.975 109 71 1
-17.6784 14.9036 375.831 101 65 1
-2.15822 30.3189 375.806 113 76 1
29.4888 41.6906 404.492 98 58 2
12.6928 23.5186 404.866 108 69 1
29.8162 49.4304 376.317 88 55 1
-33.0282 17.271 404.643 98 67 9
-2.25291 33.0215 375.785 110 76 2
11.8909 23.0309 404.964 106 69 4
-11.3886 68.1223 410.28 115 85 23
18.841 40.6867 375.954 86 55 5
-20.9699 72.172 430.76 117 87 31
-15.343 13.5801 375.856 97 60 0
3.55731 55.3383 410.499 105 74 15
-18.0168 15.5516 375.85 102 68 0
6.05348 9.46175 407.793 108 66 5
11.1769 22.5464 404.997 108 73 1
-11.7132 37.1268 375.852 115 75 2
-17.0483 13.6864 375.829 97 61 1
20.9269 41.6036 376.139 84 53 1
5.59607 55.5051 410.598 111 79 19
30.5547 50.958 376.275 90 55 1
-12.5897 29.0603 375.8 100 65 3
-17.7547 16.2498 375.775 99 64 7
-11.4057 2.02222 375.848 110 72 11
5.98637 21.8803 410.566 104 65 2
-22.6104 47.7186 375.882 112 77 10
-18.6025 16.184 375.982 104 66 0
-18.1574 16.8046 375.825 98 63 0
-22.8764 48.5218 375.927 116 76 8
-14.4235 43.1961 375.857 115 79 6
-22.4645 49.2996 375.845 121 84 8
-23.5071 75.0998 430.847 115 83 13
-0.618343 31.6336 375.753 113 71 1
0.667652 70.1046 375.861 112 79 9
7.00195 14.1816 405.064 105 65 4
10.6464 80.0146 375.926 117 81 23
-22.0917 74.5521 430.925 97 71 15
33.8978 72.8243 404.538 118 89 31
0.162483 33.1953 375.82 112 77 18
-15.795 14.6347 375.81 95 58 5
-13.2055 42.0727 375.893 120 83 9
0.129797 31.0744 375.804 111 73 1
-29.9053 11.0937 404.851 111 76 20
-0.909609 30.0648 375.826 110 72 2
-0.720405 30.8349 375.779 107 71 2
-21.4936 74.0295 430.917 104 78 24
-31.4385 72.66 417.141 103 77 17
0.328825 30.2711 375.876 113 74 1
1.48907 67.3695 404.454 87 57 3
24.3428 43.9484 375.74 84 53 3
-14.8852 43.8246 375.966 118 79 9
-16.8839 16.3875 375.857 100 65 0
-16.4578 15.5323 375.802 96 61 0
-13.3771 57.8835 404.753 122 90 33
-26.8857 49.5615 416.715 104 73 11
-2.23562 33.9311 375.847 114 76 4
-19.2355 33.1889 375.776 123 83 10
-30.9405 73.8752 417.031 102 74 20
3.30473 71.7063 404.287 88 59 1
-8.74456 63.9494 409.757 118 84 22
-2.79065 34.4394 375.932 112 75 4
14.1443 63.132 415.967 114 82 22
-16.3272 39.3463 375.986 123 85 11
-21.6058 55.16 407.895 99 68 17
-1.73674 34.8409 375.956 113 75 4
-9.27919 65.5206 410.445 118 85 18
-12.1293 68.844 410.355 111 84 28
-17.0165 39.8677 375.841 122 85 15
-29.1616 46.6361 404.927 115 81 24
-5.28576 8.38774 376.065 107 67 2
-21.5448 52.8942 404.546 117 82 19
-9.62834 -19.6779 408.362 117 82 16
-3.21466 11.8333 375.934 109 70 1
15.4193 63.3939 415.997 117 84 25
13.1801 63.0871 416.12 112 78 12
-25.4038 13.3458 410.41 107 76 7
-4.5981 12.1798 375.956 101 65 1
-1.42187 78.1155 376.077 120 85 24
-26.7476 -13.515 404.955 119 82 20
-0.646156 72.0272 376.112 107 72 13
-23.734 57.4655 410.244 102 74 20
-16.4701 45.8294 375.926 124 87 18
-13.8586 69.8991 410.491 112 81 21
-16.1445 32.1174 375.906 123 86 24
4.94056 20.0456 410.552 97 62 2
-17.3818 16.9301 375.928 100 65 0
-6.99537 7.62071 375.878 102 65 3
-14.5634 57.3397 404.709 108 77 13
-5.1428 9.46914 375.897 104 71 6
-2.27939 78.2122 376.045 127 95 39
0.512489 80.1459 376.67 127 93 35
31.2258 65.7687 376.082 97 64 2
2.13178 50.4928 375.95 107 72 6
31.0527 67.7882 376.737 98 66 4
-21.2093 50.3475 375.819 122 83 7
-15.4864 33.8921 375.782 125 84 7
-15.6302 47.8218 376.047 119 80 9
4.73033 41.6622 376.117 105 68 1
-22.4992 40.9554 375.789 124 88 19
-18.3364 41.9473 376.084 120 85 17
-8.19199 63.2968 410.298 102 75 18
6.09252 -6.54729 404.902 105 65 2
-26.749 -12.725 404.54 117 85 22
4.88189 57.4176 376.308 99 64 0
-15.0044 36.0286 375.998 120 83 12
-22.3609 29.1956 417.48 113 75 5
-17.7925 41.1663 375.985 121 84 16
18.9589 78.0412 409.933 128 99 41
18.1073 35.4538 404.761 105 69 2
-30.7292 40.975 407.996 110 78 17
-26.4827 77.3407 417.089 121 92 34
-22.4696 38.2955 375.786 124 88 9
6.79659 59.3513 376.274 102 68 3
-19.4927 41.8003 375.777 123 86 28
-15.3684 33.0055 375.865 120 81 6
14.7832 27.3344 404.461 95 62 2
28.6496 73.7274 410.083 121 91 32
-30.4638 4.21958 404.548 111 73 5
5.14369 4.72423 410.269 86 53 2
-22.6262 41.8667 375.912 122 84 9
-23.2015 39.3869 375.943 120 85 10
29.6704 45.3943 410.09 111 75 16
-2.31974 17.6836 375.934 100 64 1
19.6804 78.5777 376.36 119 84 24
24.2671 75.6084 375.994 110 76 13
20.3235 36.997 404.509 94 61 2
-24.6232 77.5462 417.291 128 93 36
-28.1308 23.447 410.393 110 75 9
-17.6148 18.368 375.942 104 67 4
24.6558 75.959 376.444 111 75 17
-6.67845 21.2497 375.906 101 64 2
-24.304 51.0285 404.365 112 79 22
17.6702 34.412 404.476 108 72 13
21.1949 77.4628 375.969 119 83 27
-13.7572 19.1539 375.786 102 64 0
-30.2344 3.09842 404.599 110 71 8
-7.55566 33.0591 375.992 111 77 5
-21.63 42.7861 376.004 120 83 13
16.1326 32.6936 404.979 110 73 13
-15.3466 36.7789 375.94 121 84 22
-6.87934 60.6595 410.239 100 73 13
-7.88722 22.6977 375.971 119 81 25
2.56509 67.3996 375.918 110 75 8
-22.8307 37.4133 375.932 121 85 6
-1.84858 18.3281 376.134 98 60 1
-21.8343 44.7085 375.898 116 78 17
-15.359 38.0805 376.142 121 85 25
-0.0804794 19.9283 376.003 96 58 1
-27.1747 -13.9004 404.444 120 81 14
28.4088 44.0239 410.225 102 67 3
-26.0961 11.7638 410.35 99 66 0
-6.40571 59.8419 410.905 99 71 1
-18.0925 20.5211 375.795 110 73 2
3.14245 80.9442 376.09 129 96 32
5.55091 81.3219 376.217 127 93 23
15.1024 79.2997 376.116 119 87 28
-24.5058 50.6716 404.935 112 77 22
-17.3349 21.2974 376.013 119 78 1
9.20039 81.0403 375.866 128 93 18
-16.7403 20.801 376.04 117 79 0
16.5795 79.2305 376.288 120 86 29
14.6759 39.3179 376.077 88 54 1
6.38351 40.1641 376.125 102 64 1
7.98151 20.6587 407.799 110 73 2
12.1849 38.9969 410.426 109 72 15
-20.7942 65.7755 410.282 89 66 7
4.4849 65.4345 376.026 111 76 12
2.60543 22.3678 415.615 112 77 7
-15.7682 -17.7718 410.351 124 91 32
-16.3902 11.9279 376.024 104 63 0
-18.4503 21.7565 376.017 113 75 4
7.87523 61.3803 376.088 117 82 19
2.99158 43.9923 376.386 114 78 19
-14.0466 25.9537 376.036 114 77 10
2.03283 46.3502 376.457 116 79 19
2.76293 45.9117 375.824 115 75 7
6.88413 62.8723 376.195 110 73 5
-30.3654 2.56936 403.894 103 69 1
-22.6239 46.575 375.985 121 83 15
-15.1274 11.1754 375.948 95 61 0
-14.1491 18.4151 375.986 120 81 13
1.62546 31.6363 375.907 116 75 1
5.12111 37.4773 375.971 113 76 9
-1.14412 26.2007 376.233 108 71 11
9.15989 38.988 376.169 100 62 0
1.02525 61.1181 410.192 93 62 3
-19.0663 77.6353 417.644 123 94 32
-22.1276 62.2625 410.355 100 73 21
-14.9125 19.0496 375.998 121 81 0
-29.4496 0.53019 404.882 108 70 4
-15.9211 38.4916 375.948 122 85 23
-1.65614 28.306 375.988 110 72 2
-17.9646 17.5708 375.995 97 63 4
5.7925 38.0853 376.023 115 74 1
-1.08981 28.9306 375.934 114 75 10
5.14007 75.3755 410.401 96 64 7
-22.6288 35.964 376.011 118 81 13
-2.77693 28.9125 375.926 111 74 2
30.1698 50.2203 376.227 91 57 1
0.726402 17.4272 416.897 107 65 1
6.07193 37.2491 376 115 76 6
-5.81187 -20.2225 404.059 113 80 8
-19.3318 18.5544 376.036 102 63 0
-13.5174 29.7192 375.995 106 69 5
-30.7926 44.8404 404.576 116 86 24
4.73646 74.6155 410.038 93 61 7
4.0763 -6.82514 410.144 115 77 9
1.1147 32.7095 375.865 117 76 10
19.6817 63.4871 415.582 111 80 16
-0.107483 32.0593 415.655 109 72 11
2.99313 39.3936 376.06 113 77 3
30.4238 77.0534 404.536 126 94 34
2.2655 32.4031 375.978 112 77 16
1.44685 59.108 410.305 104 71 8
4.20934 37.7119 375.998 115 78 2
-31.247 43.9597 404.943 115 85 27
15.2765 28.5391 404.49 102 67 2
-35.715 31.1045 404.774 105 72 0
-16.3736 44.9588 376 120 83 8
-3.40768 28.5724 375.995 115 75 9
-12.6259 1.83546 375.86 109 74 10
-20.465 66.4709 410.344 91 69 16
-4.17461 29.0729 376.004 113 78 12
37.418 62.0203 404.963 120 84 29
-11.9541 1.57003 375.901 102 66 6
-19.0573 16.9015 376.023 103 64 0
-0.179173 34.019 375.881 113 76 5
-7.08981 4.00636 375.968 106 67 2
-19.0231 31.9801 375.968 120 80 4
-23.2358 40.6441 375.954 124 87 20
5.06219 38.4805 375.977 115 76 1
0.0867923 29.1049 375.99 118 80 12
14.8941 27.9337 405.044 105 67 2
3.7571 -8.47004 410.455 116 75 3
25.3817 44.4979 376.162 82 54 5
4.61648 39.1352 376.071 110 72 2
-8.31471 26.0237 376.334 111 75 4
0.992615 33.8341 375.993 109 72 1
-36.2562 29.8237 404.567 87 59 2
-22.5047 61.0968 410.329 100 72 18
-19.8196 51.049 376.04 110 75 6
34.8064 71.2221 404.447 120 87 24
-2.38289 28.3127 375.981 110 71 2
-0.266946 28.4541 376.046 114 77 15
-5.47194 23.72 376.34 96 58 1
10.1661 18.6351 404.65 108 72 2
26.3809 42.0384 410.167 99 62 2
2.13664 33.1378 376.041 115 74 1
-6.64736 5.59911 376.197 105 67 2
-3.24415 29.5488 375.893 112 77 1
-18.3868 31.5339 376.015 118 80 1
-10.719 -20.5706 404.888 119 82 10
-34.1215 37.558 404.278 109 75 3
7.31354 0.192278 405.052 97 63 2
-22.4903 68.9811 430.671 117 91 37
28.9388 71.2671 376.674 103 68 12
37.7665 59.9307 404.583 114 80 24
-15.7649 46.6756 376.014 122 85 15
-32.6708 42.3047 403.871 115 80 25
32.0165 75.4927 404.525 117 86 28
-18.0413 50.2286 375.921 118 84 17
22.5823 76.6244 375.89 115 80 19
4.21563 75.0717 415.748 95 64 5
-17.4178 69.3278 410.424 102 78 19
-25.4035 49.9962 404.885 113 80 21
-17.6994 50.8851 376.099 114 79 16
-13.2827 28.1761 375.984 110 73 9
-17.2276 31.8712 375.912 125 83 8
31.6787 54.9892 376.125 89 56 1
28.297 47.283 376.312 88 56 1
-18.8977 42.4717 376.115 121 83 13
11.8596 80.0058 376.284 117 85 29
-36.7691 28.7771 404.688 91 62 2
32.0307 56.0397 376.38 91 57 1
-6.26606 8.12992 375.97 102 64 2
28.6802 40.9958 404.528 95 57 2
-19.9276 42.3392 375.892 120 84 15
-25.6485 -8.98364 404.936 111 77 9
37.7133 58.5901 404.679 113 75 14
-6.12361 59.0928 410.185 103 74 16
36.7348 65.4242 404.922 122 88 26
-34.197 36.0295 404.502 107 76 18
-16.176 48.5216 375.999 111 74 6
-7.58114 21.5958 376.046 119 81 13
-27.1444 8.2027 410.308 107 70 9
1.02524 30.6115 375.914 110 71 2
-27.7644 65.22 417.597 110 78 20
-17.0937 49.9452 375.995 118 78 4
1.34881 23.5965 376.104 108 66 1
-13.9247 9.08792 376.027 102 65 1
-11.324 1.08447 376.105 114 74 10
-14.0097 10.0029 375.97 104 69 4
-26.9657 71.8149 430.765 124 94 30
1.186 29.8787 376.015 116 76 8
-18.9257 51.1857 375.965 120 79 6
4.81839 64.349 376.33 111 77 8
-16.2884 41.5392 376.13 107 71 6
1.76324 30.695 375.986 109 69 1
-26.6104 74.5527 430.719 131 100 33
21.9093 77.4669 376.236 117 82 27
-4.02867 30.1458 375.923 114 76 1
-12.3011 41.7139 375.87 119 80 7
7.01457 -15.3442 404.394 105 69 1
2.47371 -11.0074 410.461 121 83 12
-10.8552 58.2664 404.118 118 85 15
-3.58619 30.7987 375.859 112 74 4
-33.863 21.1583 404.931 103 70 1
-27.2947 42.69 417.485 114 86 26
-0.624885 34.8305 375.991 111 74 3
19.3311 78.4038 404.075 125 95 40
0.635101 20.3241 376.388 101 61 1
-25.7669 52.3798 410.46 110 83 25
0.643464 21.0372 376.108 102 65 5
-19.102 44.0032 376.025 114 77 17
-14.2457 10.9881 375.985 101 63 1
0.119853 34.6143 376.051 112 73 1
0.835851 22.1357 375.897 104 67 1
-3.83432 76.0886 376.074 115 81 13
23.1566 70.0443 415.589 128 95 36
-14.8225 32.4615 376.062 122 85 15
-3.84198 74.1097 376.045 121 83 15
21.2865 78.3238 404.629 130 98 39
9.59587 61.961 415.725 116 84 24
-20.5951 42.7136 375.958 123 84 14
-13.4686 43.0107 375.923 118 81 8
1.25203 21.6044 376.186 105 66 1
-5.96578 22.5108 375.958 94 60 1
-19.5366 42.8921 376.115 123 86 20
6.18396 76.7223 404.936 100 68 10
-23.0255 49.6772 376.106 116 78 8
-26.5788 53.549 415.638 112 81 22
-3.02586 77.7523 376.097 127 93 34
-14.1748 22.8354 376.094 104 68 6
-24.7383 68.7774 430.433 113 82 14
-12.5555 40.8747 375.913 119 84 20
2.56277 -17.0301 404.835 104 72 22
-12.0152 32.3118 375.95 101 67 2
-14.1551 11.9063 375.955 101 67 7
-23.1517 38.5097 375.961 122 83 8
-21.0182 33.076 376.032 118 80 7
-11.443 40.8253 376.009 117 77 2
-26.8907 73.7523 430.736 131 97 32
-13.7348 -20.4337 404.878 116 82 20
8.16449 -12.8705 404.587 113 74 1
-34.1533 34.4357 404.768 108 74 16
-15.4037 44.4952 376.095 120 82 14
-0.778038 78.5397 376.447 124 87 25
-10.986 33.0826 375.932 110 75 5
-22.6713 44.9998 376.052 114 79 19
-4.5146 31.0881 375.943 113 75 9
4.08472 80.9864 376.111 125 92 23
-11.2388 40.0332 376.027 119 79 2
-14.5598 44.4988 376.006 117 80 10
-14.462 37.4204 376.475 124 88 24
-20.7343 50.8028 376.153 119 81 19
6.54435 81.4402 376.27 126 96 13
-25.7102 69.4083 430.651 111 81 15
-10.5447 37.0821 376.114 117 79 10
-2.51321 12.2457 376.32 104 65 1
-29.4693 72.6385 415.646 97 71 15
-14.7789 34.3602 375.984 120 84 25
-27.4478 48.4672 404.631 114 83 23
-13.7596 44.0661 375.942 118 81 11
-10.7165 38.0817 376.058 116 78 9
-21.1018 70.0485 430.78 106 77 21
-14.9644 35.128 375.939 124 85 7
-7.2402 32.0947 376.198 115 76 8
-12.4163 42.6062 375.899 118 78 2
-19.9171 69.0425 430.426 109 78 15
-8.29609 33.5186 375.958 106 69 5
-26.0886 6.03835 410.229 100 62 0
-22.8391 -18.1042 404.581 116 80 19
-2.6323 35.1579 376.028 113 76 3
-11.1123 36.7525 375.888 118 77 5
-10.3083 34.0176 376.06 112 74 5
-11.5066 39.3867 375.974 115 75 7
-9.11017 33.8506 376.131 119 81 19
-4.89067 31.8906 375.998 109 74 4
-4.16681 33.289 375.955 111 75 3
-4.72105 32.8377 375.997 111 76 4
-28.7127 47.309 404.569 115 83 26
7.54122 14.8713 404.788 102 66 5
37.1505 54.2912 404.702 104 71 10
-17.6303 -19.7714 404.665 117 83 23
-19.7935 67.6745 410.466 95 72 22
-13.4128 6.12181 376.138 99 65 5
4.25779 73.7192 404.526 91 60 5
-13.3226 5.41112 376.04 96 63 4
-19.2516 31.0593 376.188 118 78 3
-5.66075 7.39987 376.242 107 69 2
-11.7145 35.523 376.202 111 74 3
2.52672 30.5379 376.12 111 73 1
-15.4612 77.8193 417.178 117 89 34
17.6033 49.8035 416.075 112 76 12
-17.7882 14.278 376.159 102 64 0
-10.8384 36.135 376.014 116 79 9
3.35348 30.4563 376.257 113 73 1
-7.34247 1.63739 376.214 107 71 6
-12.5663 0.874244 376.105 110 77 19
-23.7644 4.65229 410.181 108 68 0
-4.69613 10.5589 376.259 99 62 2
-18.2407 12.4529 376.119 104 64 0
0.707699 24.152 415.547 108 74 10
2.96266 31.2369 376.107 110 78 16
3.74958 -13.4109 407.884 118 80 13
-17.2366 12.3875 376.122 97 62 4
31.1481 68.761 410.306 130 97 43
-17.7733 30.9032 376.127 118 80 7
-8.26857 0.910821 376.1 111 70 9
-16.0305 10.9906 376.086 92 60 1
-16.9129 10.7633 376.007 94 60 0
-19.2652 66.8057 410.072 96 73 22
-17.0146 30.9605 376.115 122 83 24
-19.5516 17.5124 376.121 104 66 0
-10.6707 -0.121029 376.159 110 79 28
-16.7205 9.98829 376.137 94 61 6
-4.09993 11.3891 376.097 99 58 1
-23.8776 -12.8536 407.822 114 78 5
-22.3837 34.5865 376.115 119 83 21
-9.847 -0.449671 376.209 112 76 16
-17.628 10.8821 376.186 100 64 0
-27.1151 72.5182 430.554 134 101 36
-15.8048 9.94609 376.065 94 60 1
-14.4526 26.7116 376.058 115 77 12
-13.3221 2.38305 376.338 98 65 11
-3.07881 11.0845 376.126 106 66 11
6.81896 3.20025 409.277 88 54 2
-17.138 11.6982 376.034 95 61 0
5.06059 -3.25324 410.411 89 56 3
-18.9297 20.8919 376.19 106 70 8
-17.889 11.5305 376.093 100 66 2
-30.1198 45.9257 404.21 114 82 18
29.7917 69.2108 376.275 100 66 1
-14.4214 28.174 376.154 106 69 6
-33.3305 39.9206 404.643 114 83 24
-7.55143 33.8999 376.122 115 77 6
-15.1113 20.002 376.166 119 84 21
-13.8903 27.6197 376.057 119 81 19
-15.1484 10.4479 376.166 96 61 1
2.37465 -4.01232 418.08 100 63 8
2.99301 31.9888 376.081 116 80 16
-16.3206 31.0994 376.128 123 87 24
7.42396 11.2283 403.905 103 66 2
30.0722 67.9377 375.895 99 67 4
30.4837 68.7574 376.66 100 66 4
-20.6501 72.9429 430.756 117 88 32
-32.1469 42.782 404.59 117 83 25
-15.5662 21.5583 376.177 113 74 3
6.87985 12.7072 404.315 102 65 1
6.06229 58.9402 376.656 102 69 2
2.32439 55.0929 410.368 101 70 7
-26.0112 76.8679 415.809 107 80 25
-4.20865 27.9731 376.119 113 76 11
-5.24778 28.762 376.156 113 76 9
-6.51445 6.69858 376.408 104 66 2
-15.0192 23.932 376.046 115 79 9
-14.9771 23.013 376.099 120 80 4
-26.9657 70.7243 430.396 123 92 33
-9.66955 34.4702 376.144 115 78 10
-26.5695 70.0823 430.539 121 93 36
-13.9924 28.8784 376.071 108 70 9
-5.03751 29.8697 376.061 113 79 10
23.9317 76.4563 376.391 114 75 14
28.2498 72.7641 376.941 101 70 8
-6.03319 23.055 376.373 96 59 1
7.65596 60.5186 376.26 111 79 20
3.93061 -5.92368 410.373 113 77 4
-31.5826 43.8607 404.326 118 83 27
2.79055 33.2651 376.244 110 71 2
-18.4517 22.5443 376.31 114 76 8
-0.755561 19.2141 376.126 93 57 1
-33.9974 38.5411 404.072 114 82 19
-18.3822 18.2587 376.111 97 62 6
-3.13478 27.6023 376.091 113 76 6
6.09498 62.6807 376.297 111 73 6
-20.4999 73.7317 430.624 110 84 34
-22.6788 75.1651 430.664 106 80 15
-11.471 41.9291 376.218 116 78 3
27.5995 72.2305 376.097 103 68 9
-2.26966 27.567 376.082 109 71 2
3.64253 37.1879 376.086 112 77 15
4.30595 36.7233 376.083 112 74 1
-26.3045 75.1829 430.401 125 94 27
-7.63669 23.5598 376.378 113 74 3
2.83146 37.4057 376.146 114 77 4
35.6278 49.1405 404.111 100 62 2
-8.2899 34.2816 376.088 106 69 4
-14.5375 25.0147 376.082 118 82 4
4.0631 -7.73733 410.023 111 73 7
-26.7417 2.04245 408.093 97 64 0
30.9726 66.5976 376.165 101 66 2
-1.43485 60.3229 404.552 91 61 1
10.7605 38.6884 376.405 99 63 1
5.04978 63.5274 376.5 110 72 9
31.4807 66.6762 376.698 101 65 3
4.45289 5.38714 409.442 93 56 2
6.73832 3.24265 410.115 91 54 2
18.2888 49.6426 415.987 108 77 12
36.9272 53.303 404.662 101 68 8
-21.9395 63.2029 410.413 96 71 6
5.74863 1.73794 416.858 114 78 4
-18.3926 43.1697 376.258 119 83 18
30.6109 67.3795 376.137 102 68 4
6.19565 77.4199 415.998 122 89 27
7.60797 62.1375 376.252 121 82 12
32.0094 56.8026 376.198 90 59 1
-2.69683 58.8667 404.598 108 73 20
11.6873 38.7779 376.372 94 58 1
3.37597 37.8884 376.047 116 78 16
-14.4134 23.51 376.139 121 81 6
-30.8806 6.4408 403.748 108 75 12
-20.4198 69.6992 430.677 114 84 20
-25.4282 75.5813 430.144 120 92 32
-16.9537 41.2022 376.262 122 85 12
13.8627 39.1252 376.178 89 55 1
-14.9609 31.6062 376.182 122 84 13
-1.66743 27.6229 415.666 116 80 19
-16.2291 49.3183 376.294 118 82 16
-0.200424 70.2801 376.131 114 79 7
-12.2963 35.9276 376.496 101 65 4
5.88037 8.32644 404.829 117 76 5
-1.40729 -6.62479 417.531 79 51 9
-23.8872 68.8445 430.603 116 86 31
-30.5723 4.91356 404.545 111 75 21
-26.5175 -12.0338 404.655 110 75 10
-30.6982 5.62969 404.41 107 75 13
15.7478 39.3833 376.441 88 52 1
32.0759 63.1839 376.241 98 64 9
-29.7627 42.3281 408.151 111 78 21
-23.2884 36.6525 376.143 116 81 10
-0.909425 28.0217 376.066 111 74 1
-28.3828 24.2327 410.359 112 78 15
-18.2774 51.4572 376.269 124 86 17
-16.7753 42.1325 376.102 110 71 11
31.7122 64.3028 376.105 95 63 1
-15.7327 45.6736 376.125 120 86 18
1.69413 47.2505 376.651 114 77 4
5.19767 36.4344 376.07 112 72 1
18.1404 40.2549 376.255 87 52 1
4.0364 62.6503 415.792 125 85 7
-25.4152 -16.6153 404.731 121 84 27
2.44969 -14.6405 410.172 111 72 1
28.2714 78.2059 404.559 125 95 28
-23.6664 37.6594 376.178 116 79 19
-12.8949 37.7294 376.183 100 64 4
-23.6221 41.466 376.118 119 82 14
-34.5197 32.6348 404.711 88 61 2
-23.435 45.9824 376.148 111 79 9
5.36866 40.7515 376.262 102 66 2
13.1903 49.0785 415.687 117 81 10
-12.6324 43.7077 376.122 115 72 4
0.0632648 16.8686 417.078 99 59 1
6.11646 36.0029 376.118 116 77 17
0.815437 29.1539 376.07 115 80 11
36.0739 50.3685 404.325 101 67 4
-23.7993 46.7454 376.316 113 77 9
-5.93816 58.6841 404.279 122 88 29
-14.0003 38.5116 376.488 113 75 2
-23.958 38.8755 376.202 118 82 15
-5.34936 30.8584 376.081 113 74 4
-23.7328 42.3388 376.26 116 81 20
2.69776 7.13045 417.128 107 69 2
9.69541 77.8466 416.088 128 97 39
-20.8686 43.3663 376.121 124 87 21
-1.81367 27.0155 376.169 112 76 1
3.64552 43.114 376.199 112 74 20
30.3365 47.007 410.245 117 85 27
-22.3106 43.4399 376.213 121 84 9
-26.249 -16.0361 404.662 121 84 16
1.35182 24.3919 376.319 105 67 1
-3.65695 76.805 376.152 116 82 11
-10.6469 38.9916 376.275 116 81 9
33.2342 56.4822 410.189 117 80 19
-22.8037 42.7374 376.113 124 83 7
-20.3403 77.6752 415.546 118 89 37
37.5311 56.2719 404.671 103 68 2
2.08459 29.8647 376.144 110 70 2
-8.81207 64.6676 410.365 116 82 17
-15.5266 49.0066 376.315 116 75 2
3.84564 39.4633 376.044 109 71 2
3.56813 40.2322 376.245 109 73 2
32.1896 61.7853 410.164 114 81 21
2.74567 38.4183 376.079 117 77 15
17.7766 78.054 409.268 126 96 40
-26.3656 -3.99252 404.615 98 66 0
-3.13673 72.5861 376.34 117 80 8
1.92875 38.4877 376.18 114 75 2
-5.84833 31.493 376.17 111 77 6
33.872 46.1294 404.389 96 59 2
-2.57262 17.5964 417.115 112 75 1
31.4557 76.7229 403.639 124 91 32
-29.915 2.01971 404.76 111 73 9
-27.3699 43.9715 410.127 121 85 16
6.68821 36.7379 376.094 119 76 5
-23.2235 50.2946 376.379 113 78 8
8.11483 -14.0999 404.541 103 66 1
-14.7011 45.3909 376.042 116 80 9
-4.56013 33.9215 376.056 110 74 1
31.5783 67.9316 410.222 129 99 44
10.1441 80.7273 376.107 117 84 19
-23.7816 3.00504 410.564 100 71 7
-21.8073 50.9333 376.067 111 75 9
27.6673 46.2834 376.639 84 54 6
37.3925 55.2415 404.571 106 70 11
1.89614 39.6632 376.173 116 77 2
2.62676 40.1662 376.143 112 78 4
-14.1663 32.8447 376.208 122 85 21
3.71562 38.6367 375.99 118 77 3
27.1092 46.1223 376.121 85 56 4
-5.45295 32.8515 376.113 110 74 5
-3.6408 35.0284 376.077 112 75 2
-14.2281 33.7165 376.159 121 84 25
7.81856 39.3983 376.125 101 63 0
-20.7222 32.1532 376.146 119 79 7
26.9972 76.3726 409.201 116 89 28
-13.7867 45.046 376.092 115 69 2
-20.0952 31.4283 376.205 119 81 7
-1.96446 71.952 376.155 112 77 13
2.62149 53.6612 376.26 108 70 1
-1.92541 35.8873 376.166 113 75 2
-11.7787 32.9887 376.163 100 64 1
-5.1792 33.5446 376.11 110 74 5
-1.15623 35.616 376.145 111 73 1
-5.31101 56.1567 417.177 110 77 18
32.4068 43.885 403.258 95 56 2
7.05529 4.49454 404.419 106 69 9
3.33693 55.6076 376.598 99 64 0
-10.5559 -20.7587 403.714 118 81 16
-27.8351 -2.61637 404.629 102 64 0
-9.81482 -20.6496 404.199 117 82 15
-14.0929 34.6067 376.262 123 84 24
-21.5227 27.4736 417.003 102 73 8
-29.6574 1.32438 404.946 107 74 10
-0.374897 35.4585 376.262 113 71 1
2.21569 23.5733 415.642 95 62 1
25.8744 78.4507 404.73 132 98 44
1.91902 33.7868 376.203 108 71 1
-11.1896 33.8937 376.335 107 69 8
-22.1841 32.6322 376.362 122 84 14
-21.4834 32.0654 376.298 114 78 14
-20.154 43.9255 376.193 123 86 16
32.4469 54.3084 410.234 111 73 11
1.54724 37.2656 376.379 110 75 4
-25.7524 -2.17876 410.203 99 64 1
-15.785 8.98084 376.212 96 61 5
-11.4991 34.8902 376.397 113 73 0
-23.6482 48.311 376.331 108 72 9
-18.5698 30.0107 376.382 119 81 6
-25.4649 -2.72363 409.85 99 65 3
-12.416 0.0980588 376.308 114 78 17
-18.6921 30.6685 376.229 116 78 3
-16.4126 40.1724 376.17 122 85 20
-13.4728 -20.6449 403.803 118 82 20
6.88327 23.7678 410.079 106 71 2
-15.2412 38.8711 376.332 123 85 16
-6.90992 2.35059 376.407 105 67 3
-7.15052 61.2809 410.429 100 73 18
-6.68607 3.25902 376.206 106 67 3
-25.7752 -11.0029 404.638 105 73 5
-20.8993 74.8298 430.394 101 74 19
27.2585 74.9985 410.333 121 92 34
1.87959 22.4103 376.458 105 65 1
-19.4201 -19.1024 404.797 118 83 15
4.00408 31.5749 376.266 117 78 14
-19.5576 69.649 430.427 110 84 23
-23.2351 35.2333 376.307 114 80 18
-6.0139 34.047 376.306 114 77 6
27.0995 50.5962 410.413 110 74 14
12.6025 79.9192 376.327 116 86 27
-23.4474 35.9269 376.286 115 77 18
-17.5999 42.3426 376.321 124 85 19
-17.8984 30.1521 376.307 119 81 13
-6.52229 22.1529 376.23 101 62 1
3.72125 32.3859 376.234 117 78 10
-7.7802 58.1798 404.628 69 37 0
-14.9414 27.2593 376.281 100 64 2
-15.2593 25.2905 376.149 109 72 3
7.516 -9.43341 404.563 107 70 2
-22.0045 75.2069 430.457 114 83 11
-15.0883 46.2414 376.175 119 82 16
-10.5154 40.0608 376.541 119 82 13
-14.9674 26.1902 376.12 109 70 6
-5.17268 34.6917 376.22 111 75 8
-23.724 -17.4964 404.768 117 83 21
-23.9908 40.132 376.178 121 83 8
29.6483 71.4056 377.394 103 69 5
-28.6787 39.7634 410.417 115 83 23
-9.87774 35.2463 376.281 120 84 18
6.75634 77.4575 404.298 103 72 14
-24.2991 41.0378 376.3 122 85 22
-34.4074 22.0964 403.851 109 76 16
-11.4046 42.636 376.427 116 81 11
-11.5913 0.141807 376.338 109 78 34
-9.45953 59.2737 404.959 119 84 26
-13.8871 6.7262 376.327 106 69 3
13.418 79.637 376.252 119 87 30
-26.2256 49.6107 404.286 113 85 20
-5.23762 35.6383 376.314 115 77 6
-16.5683 30.1775 376.327 122 83 11
-21.8061 28.2708 417.197 111 77 10
-4.4645 35.3249 376.192 114 77 4
-9.57091 58.7021 404.344 119 85 24
17.3195 79.2504 376.451 121 90 28
-4.4539 26.8361 376.3 113 76 17
17.9668 78.7259 376.129 119 86 28
-16.6887 69.9108 410.476 104 77 24
-13.8934 7.90474 376.197 101 68 2
23.3452 76.9838 376.485 114 78 18
3.45985 65.7407 376.283 119 84 11
-13.2479 30.8572 376.189 99 61 1
-19.4608 70.4278 430.365 108 81 24
-5.18291 27.7431 376.254 116 76 5
-15.7465 -6.14517 417.568 88 65 16
-15.6132 31.2497 376.168 121 85 23
18.2395 78.2707 404.786 128 94 37
23.0444 77.7067 410.146 125 96 40
-20.1551 70.4039 430.584 109 78 20
-10.6563 34.8349 376.243 116 80 10
-15.2835 30.5799 376.422 119 80 8
-10.0687 36.2264 376.337 122 85 28
-6.25446 29.4892 376.276 112 74 4
-20.4866 71.049 430.403 103 78 27
-14.4523 39.5412 376.165 100 66 5
26.6974 75.0686 377.175 108 74 7
-14.7447 9.62343 376.266 95 63 1
-13.6642 32.3633 376.486 122 84 23
-22.1414 -9.5357 410.044 111 78 6
-3.71587 35.8205 376.194 113 78 6
-10.5268 35.5134 376.216 124 86 18
10.8677 19.4985 404.65 106 72 4
-20.5752 12.3163 417.551 104 71 0
-7.45901 30.768 376.243 113 75 6
19.9598 78.2825 404.605 127 97 37
-20.1961 18.8833 376.216 111 71 0
-13.4839 33.6226 376.459 121 86 21
-3.74069 27.0986 376.193 114 75 4
-18.8591 13.097 376.254 102 64 0
-33.8973 19.2671 404.661 99 67 10
-0.591953 27.1405 376.226 115 76 14
25.3812 75.6395 376.662 110 75 16
8.25811 16.365 404.527 110 70 7
-1.30686 28.3263 415.601 113 80 12
-21.0821 -18.503 404.652 94 63 27
-23.4162 48.9984 376.211 112 73 9
-15.232 20.7517 376.189 121 83 11
29.3391 48.6592 376.335 89 56 1
-14.4711 20.8137 376.281 119 82 7
-10.2432 38.4341 376.581 114 78 10
-23.1015 68.514 430.463 118 91 39
29.0035 44.8884 410.339 112 71 4
-18.8265 15.5901 376.505 98 62 4
0.80358 54.5148 410.307 94 68 5
-3.19592 26.4997 376.263 108 75 17
-17.83 13.222 376.269 99 66 4
-7.99797 29.2099 376.185 111 73 1
24.282 76.8647 376.887 112 79 18
-5.70483 30.0054 376.164 109 77 10
-8.10535 28.0914 376.336 113 77 10
0.435147 27.8306 376.237 111 77 1
0.260327 15.8892 417.133 108 73 2
-8.78767 34.7961 376.327 115 80 17
-6.1585 30.6248 376.243 110 75 5
1.11142 28.4458 376.232 113 74 1
-2.41 26.0796 415.738 119 81 23
4.4244 35.8844 376.208 115 74 1
-7.95457 0.166726 376.309 109 77 21
14.9161 29.9983 404.588 101 66 2
15.9889 78.3174 404.985 119 88 36
-33.6326 18.3442 404.654 98 67 11
0.283555 35.5284 376.54 112 71 1
1.99189 -17.4934 404.417 108 74 19
7.96293 15.3181 404.079 99 63 2
-18.5957 18.941 376.228 102 65 2
-8.82154 0.309068 376.414 108 70 14
-31.3438 23.4335 408.399 92 59 0
-14.6869 21.6855 376.274 122 86 18
-18.8501 19.5885 376.333 105 68 0
-21.1159 68.8861 430.565 116 87 30
-29.779 38.4679 409.995 109 77 20
5.06023 35.3654 376.246 113 70 1
-7.54599 34.8368 376.298 116 78 5
31.3095 52.4891 376.518 90 55 1
8.19034 78.1141 409.107 114 83 25
28.3883 40.599 404.039 95 59 2
-20.2976 74.4188 430.39 99 75 28
3.51814 8.7393 417.272 105 65 3
-5.4571 36.5312 376.296 113 76 5
-20.0873 72.3386 430.447 114 85 35
-14.7546 22.3694 376.208 123 86 19
1.55115 29.2046 376.172 115 77 14
-6.36621 7.44137 376.228 104 67 2
-14.3313 35.4785 376.25 121 83 25
-7.15298 -0.0841044 376.629 107 70 5
6.3941 35.1536 376.268 112 70 1
-4.21664 36.4118 376.232 112 79 14
-8.1534 35.6402 376.287 110 70 1
-20.2 19.9465 376.305 98 61 0
-5.83354 37.5892 376.211 110 71 2
-20.0571 51.8439 376.302 112 77 6
-2.24907 26.3416 376.239 115 76 8
-1.59849 -18.9525 404.69 111 75 7
-16.4903 50.1033 376.455 120 82 12
-3.7612 10.5779 376.253 96 58 1
-14.4374 36.3816 376.321 120 84 26
-3.04866 36.0837 376.24 114 78 1
-22.0781 68.2776 430.381 116 90 30
7.00632 35.9134 376.189 117 79 10
-4.78627 37.5284 376.175 117 78 2
-4.99982 7.65274 376.396 107 70 6
7.90047 35.755 376.368 114 74 1
-21.9147 2.64704 417.609 94 61 1
-16.9442 -19.9728 404.514 116 81 19
-7.32009 22.3631 376.32 113 75 2
8.93 17.1732 404.652 96 61 9
32.1977 57.6274 376.331 94 62 3
-17.0402 51.3934 376.518 119 79 9
32.3451 59.7019 376.322 92 58 1
-2.95608 10.2901 376.391 111 71 3
-13.6023 4.60705 376.376 102 70 9
-5.31774 38.0996 376.169 114 76 4
2.93013 35.8623 376.379 109 69 2
-24.4941 39.3293 376.38 118 82 18
3.61673 36.4573 376.191 111 72 2
-21.4802 3.09835 417.178 96 63 1
0.740829 25.2304 376.281 108 66 1
-6.1706 39.182 376.278 109 71 2
32.6382 61.4464 376.717 95 62 1
-23.2405 47.4476 376.229 115 76 10
-6.76683 58.849 404.779 108 76 12
-22.0721 33.5319 376.187 123 84 15
-15.2585 56.5397 404.206 108 76 14
-25.4936 -17.1511 403.942 125 85 16
-16.0366 20.7063 376.271 119 83 3
-0.0884024 63.7723 404.61 89 58 1
7.00249 39.4159 376.363 104 69 2
32.4291 62.3533 376.528 95 65 4
-17.7604 51.9338 376.381 121 80 5
12.7418 38.8349 376.45 90 58 5
-15.7593 22.7885 376.238 109 70 1
11.1244 20.4084 404.38 102 63 3
6.52763 38.0189 376.301 113 74 1
-19.666 52.9207 376.492 117 78 17
-17.3091 29.7064 376.421 121 84 19
-5.33155 38.9038 376.236 116 73 2
-2.33716 36.4646 376.319 113 76 2
-0.613873 62.5086 404.68 88 58 2
28.4165 51.4553 410.342 111 77 14
4.98932 62.2379 415.677 109 73 2
-15.9701 56.2764 404.528 108 78 16
-0.84369 69.8086 376.244 118 83 14
1.85906 -4.41681 417.679 95 61 8
-15.5696 24.4 376.217 99 61 2
-1.2257 36.328 376.386 109 71 1
3.83329 17.6563 410.28 117 82 23
2.17873 80.8576 376.233 132 98 37
-19.7935 71.1172 430.31 95 68 12
-29.9659 68.1663 415.579 110 78 15
-20.9008 -12.443 410.23 124 87 26
0.0855882 71.4279 376.303 124 87 28
26.739 49.7258 410.372 112 76 11
-18.1708 68.8388 410.433 102 76 20
-8.74751 59.1336 404.377 101 72 14
-0.195696 69.2767 376.217 112 76 9
2.23918 45.412 376.556 118 77 20
2.76858 40.9805 376.4 112 77 4
-3.16947 78.27 376.533 127 92 34
22.9816 38.1085 404.658 83 55 8
0.864908 69.1527 376.35 112 79 9
-21.0824 68.1894 430.284 115 87 32
-0.378854 79.4525 376.937 126 90 27
2.85349 29.6112 376.31 107 70 1
23.0039 37.7935 403.483 87 57 2
-25.3657 -10.0702 404.258 115 79 1
3.19692 54.8936 376.161 102 67 5
-3.76941 77.3674 376.58 116 80 12
-11.8397 58.0965 404.495 116 84 24
19.5565 36.5759 404.558 97 64 3
5.70086 76.1615 410.168 95 66 7
22.369 37.829 404.383 85 57 2
-26.8151 10.8375 410.198 101 67 0
-22.9059 59.9412 410.307 101 72 18
16.3463 31.875 404.17 111 73 15
-28.8623 20.738 410.388 104 71 3
-8.11968 39.9032 376.354 110 71 3
6.09042 34.2635 376.451 106 69 1
0.832199 40.2454 376.343 116 77 2
15.0125 44.616 415.632 125 86 24
19.384 40.5856 376.652 81 54 6
3.80455 35.2236 376.387 110 71 1
-12.9526 44.6572 376.346 111 73 3
-18.3305 9.43594 376.387 94 60 0
-19.2369 10.676 376.432 94 62 2
-6.01878 40.0641 376.4 111 67 2
1.41506 40.6905 376.305 112 77 5
3.88747 15.4335 410.092 111 73 4
0.75314 34.7888 376.321 108 72 1
37.44 63.127 404.527 117 83 26
1.7262 58.407 410.318 110 75 16
-7.02948 38.8251 376.327 109 67 3
21.5176 41.6449 376.671 84 53 1
18.6048 64.1488 415.424 122 90 27
2.28951 34.2896 376.575 107 71 2
-1.55592 -17.5673 408.557 107 75 23
-18.7173 10.089 376.406 95 61 2
-9.21149 40.2247 376.417 111 70 9
4.45257 39.9072 376.353 113 76 3
-2.57749 36.3422 417.236 117 80 16
7.63401 34.9076 376.398 115 72 1
7.16898 34.279 376.472 110 70 1
1.12073 41.3964 376.432 110 75 7
7.02695 59.9874 376.611 112 77 10
-5.98719 34.9376 376.385 111 75 6
-27.3596 9.91198 409.943 108 70 5
-7.06804 39.5123 376.375 113 74 2
8.38423 35.1523 376.502 115 77 2
-4.23885 38.2456 376.38 114 75 3
-21.6021 77.6904 415.932 118 89 31
-7.99741 24.5475 376.402 114 74 4
2.7566 11.1264 417.086 97 58 1
37.1312 65.1206 404.267 117 85 25
-6.54363 31.8818 376.313 114 79 18
-31.0517 67.827 417.119 117 83 7
7.60537 36.5663 376.398 112 74 1
-14.9755 47.1371 376.418 119 85 13
-8.76512 41.2784 376.396 110 67 2
1.51945 48.1236 376.737 114 75 4
-10.3101 41.3625 376.43 112 77 4
-20.549 -15.6083 410.127 120 86 15
30.542 44.3451 408.067 101 62 3
-23.1329 57.7078 409.856 100 73 17
-6.6523 32.6504 376.342 115 81 10
-1.86733 36.9701 376.522 111 72 1
-6.45873 38.4078 376.262 109 68 2
2.03776 41.3924 376.429 116 76 2
-14.9884 48.5157 376.524 113 76 2
17.1926 63.9086 415.661 113 83 22
-25.8455 -6.19353 403.551 112 75 8
-10.1359 42.3737 376.369 115 75 1
-6.42444 59.5076 417.372 110 77 14
-9.51505 41.755 376.347 112 68 2
2.16987 36.364 376.41 108 73 3
9.31492 33.4394 410.43 104 68 1
-6.80584 34.4119 376.509 117 80 10
-24.2345 49.8189 376.847 109 71 8
7.14184 37.5223 376.446 115 75 1
-4.67774 -18.0259 410.162 110 77 18
22.7217 77.4472 376.549 116 82 19
4.65226 12.0748 410.081 100 63 5
6.03499 -7.23455 404.658 105 67 2
6.01291 -4.24639 404.406 103 65 2
-22.7249 50.9053 376.372 111 78 9
-8.05602 40.7957 376.453 111 66 2
25.8603 74.947 376.493 108 75 14
-4.56117 9.91807 376.459 101 65 2
18.6519 40.0198 377.182 85 55 2
-5.16437 -18.423 409.78 116 80 19
-33.2248 40.6197 404.299 116 84 25
-3.60997 36.7159 376.328 115 79 19
1.12929 38.3685 376.34 110 73 5
13.0291 62.0745 415.718 110 77 17
30.8472 50.3874 377.059 85 54 2
-14.9665 69.4839 410.219 109 81 24
-26.9194 16.9137 410.163 107 76 6
2.19845 67.4014 376.515 106 75 12
4.08168 13.2814 410.311 109 72 1
-30.7105 8.03587 404.29 111 76 6
-0.593538 16.3437 417.033 99 65 7
29.5657 72.163 410.253 126 93 38
8.4706 -10.9203 404.273 107 69 1
-19.213 12.3154 376.468 102 65 0
-3.90421 37.5375 376.376 116 78 2
-25.6254 3.17287 407.921 100 64 0
-1.34222 16.1322 417.06 110 75 3
23.3684 66.0449 415.684 130 96 37
29.6051 48.0301 377.342 87 55 1
-26.0387 15.2801 410.387 104 73 10
-0.498818 70.8956 376.443 117 82 6
-19.9084 67.0033 410.303 97 71 23
-19.3383 13.7594 376.412 102 66 1
-28.4681 19.8747 410.306 103 72 7
32.0869 54.7387 376.799 87 55 3
4.8646 32.0731 376.461 114 77 10
-33.8579 38.1152 404.634 111 81 19
-15.3685 40.31 376.283 113 75 14
10.3432 81.2793 376.905 128 96 37
2.49072 28.7147 376.418 110 71 1
9.69566 38.5029 376.51 108 69 1
-1.12738 71.5125 376.311 111 77 9
0.943129 39.4168 376.303 110 75 5
-6.13741 2.54868 376.502 109 71 2
17.8952 63.687 415.503 118 85 25
15.1823 46.3525 416.072 125 89 22
-5.0229 55.4833 416.962 109 79 14
-4.87026 -20.084 403.818 116 77 10
-10.6754 40.7622 376.488 119 83 20
-24.8889 53.836 410.05 110 78 16
-2.09668 13.9375 376.863 100 61 1
18.6604 78.7837 376.324 118 85 28
11.2674 78.6512 404.388 114 86 28
4.25067 32.8348 376.492 109 73 1
-11.7346 43.2647 376.474 116 78 5
-18.4683 13.8002 376.429 98 64 0
2.92849 65.0063 415.918 99 68 15
-4.84255 54.6292 417.37 112 79 12
27.1255 73.9314 376.75 110 74 5
6.26075 5.38188 404.78 105 72 9
-20.873 51.6057 376.598 121 82 13
1.85391 51.1647 376.498 109 73 0
10.4116 78.6744 404.26 115 85 29
-3.11046 37.1582 376.507 114 78 13
-8.79228 -19.2196 409.715 116 83 14
2.20689 53.1728 376.676 104 67 2
-7.28881 0.816669 376.387 108 71 4
-13.3229 1.34422 376.549 96 66 13
17.7092 62.8825 415.5 121 88 23
4.16459 30.7003 376.367 117 78 4
13.5565 38.8987 409.97 98 65 7
9.69145 31.4775 410.218 112 75 10
26.6323 74.4391 376.706 108 74 17
-20.5852 53.6463 376.798 114 76 9
17.2953 78.3354 404.637 122 93 38
7.4828 0.7038 404.499 100 62 2
-6.01547 5.9445 376.827 107 67 2
-26.7489 48.5326 410.271 119 86 16
-19.1605 52.2011 376.253 116 78 17
-13.5837 3.14132 376.521 99 67 3
-5.83701 6.68132 376.531 104 64 2
7.21151 0.0188917 404.345 100 61 2
-5.17239 6.54583 376.621 111 71 6
36.1149 68.2313 404.401 121 87 34
-30.4149 9.40435 404.523 108 73 12
-29.4986 26.4009 410.039 116 83 24
22.1563 39.5992 410.212 95 58 1
-14.8272 8.69671 376.294 93 60 1
11.0141 61.8686 415.673 120 86 28
-2.0598 16.1025 376.72 99 62 1
-9.99422 -1.22142 376.463 114 80 24
-19.9114 30.5593 376.381 118 80 12
-6.95398 29.1676 376.406 113 77 5
-26.4869 -11.4477 403.958 107 74 11
-15.5924 39.6653 376.341 121 85 16
-16.3245 24.4392 376.979 96 61 2
-7.38509 30.0194 376.386 114 77 5
-27.0777 46.7356 410.314 119 86 16
2.89606 70.7719 404.241 88 59 0
-20.746 30.9078 376.415 117 81 14
-20.4127 17.9171 376.593 105 65 1
-24.607 41.9619 376.499 119 81 15
-34.6368 23.7087 404.556 110 77 4
-23.5618 43.0163 376.328 118 81 20
1.131 27.6507 376.394 110 70 1
-0.328768 26.3825 376.343 113 77 16
-4.51672 9.21287 376.606 102 64 2
-15.9597 40.7736 376.298 120 82 13
-7.05779 31.3891 376.331 119 81 16
-23.2935 43.6494 376.405 118 81 20
-0.956721 68.7255 376.534 119 83 13
1.02335 62.09 410.301 86 57 1
-21.3887 65.3385 410.461 94 69 10
-23.6173 45.0151 376.506 109 74 8
-1.48576 69.5311 376.57 123 89 15
0.22397 68.6767 376.497 106 73 11
-24.904 39.936 376.523 117 80 10
-23.6853 44.2142 376.622 119 82 21
1.85943 28.1892 376.413 112 71 3
-15.7565 25.816 376.641 95 59 2
-24.0307 36.9179 376.388 111 74 11
-22.5742 44.2191 376.341 119 81 17
-13.219 34.5711 376.636 123 86 22
0.570146 27.0356 376.41 113 73 1
-6.69193 30.0518 376.346 113 77 5
-26.083 51.4677 410.474 115 81 21
-22.1953 31.8916 376.489 118 81 9
-3.73077 73.3017 376.387 113 78 8
-11.9928 33.5753 376.646 109 72 5
-20.8961 19.0309 376.573 107 69 0
-21.2094 64.0937 410.169 96 70 16
-5.44971 26.406 376.496 115 75 1
-5.1911 27.0664 376.346 111 75 6
-19.3842 20.2374 376.472 102 67 1
29.036 77.9827 404.479 124 95 32
-19.1983 22.8391 376.414 117 79 4
-6.82525 33.5244 376.411 116 82 17
-23.2391 33.9023 376.435 118 81 17
-6.18716 28.141 376.371 113 77 3
-22.8231 33.1896 376.421 121 84 8
30.0861 42.2367 404.535 94 57 2
-4.11849 25.4435 376.438 108 72 4
1.38232 26.9174 376.586 108 70 1
3.8186 -16.9358 404.409 108 71 15
-12.1344 -20.6598 404.316 116 82 19
1.43077 -17.875 404.273 108 73 22
-20.7129 20.8044 376.557 97 65 3
13.3968 64.9476 417.145 113 82 21
-4.37738 26.1265 376.43 111 75 12
-7.46179 35.5351 376.538 113 77 7
-12.746 36.8588 376.609 101 66 3
-8.41031 36.398 376.532 108 74 2
-23.0305 75.6319 430.169 121 93 34
-0.0748298 40.1377 376.498 110 72 3
-31.4831 32.2876 409.145 111 82 26
-19.2661 9.24382 376.464 105 76 22
-20.3669 10.113 376.629 110 72 14
-9.35711 -1.75223 376.764 106 71 11
-24.4216 75.666 430.162 124 92 28
-23.0262 23.9612 417.137 88 59 0
-16.0194 23.8419 376.523 96 58 2
-21.2648 19.7579 376.656 109 75 13
-9.1756 -0.600695 376.57 102 65 1
1.62563 34.5491 376.494 109 73 3
-19.4146 9.93633 376.415 106 71 15
-17.3767 22.0044 376.512 115 76 2
-19.5794 21.8411 376.464 104 68 4
1.89118 21.6624 376.594 103 64 1
-15.8602 24.9429 376.562 95 60 2
-17.3875 7.62165 376.518 98 71 16
0.679841 26.1386 376.558 113 78 11
-25.0222 41.0368 376.584 117 79 18
-4.92299 39.7949 376.506 111 72 2
0.115529 41.1746 376.523 110 74 5
-30.5397 36.5175 409.853 106 75 16
-18.9387 23.9395 377.095 118 78 5
-17.8384 22.688 376.774 115 76 2
-0.50557 36.0882 376.525 109 72 2
-2.33414 10.9177 376.571 106 68 1
-18.797 8.54859 376.533 97 64 7
-18.1665 7.90225 376.6 97 67 1
-24.5686 37.5841 376.545 113 77 15
-20.3089 68.2354 430.177 113 84 27
27.4613 40.1438 404.679 94 57 2
7.3637 61.2419 376.56 118 84 19
-7.08432 37.5232 376.659 109 72 2
-27.1871 73.2615 430.1 130 100 34
-24.8099 38.6237 376.545 117 79 15
-18.0693 8.58406 376.395 95 65 5
-16.5181 21.6845 376.583 118 78 10
-0.768958 -18.4214 404.666 104 76 26
