ply
format ascii 1.0
comment Created by Open3D
element vertex 1418
property double x
property double y
property double z
property uchar red
property uchar green
property uchar blue
end_header
38.5046 48.0431 393.801 116 76 0
23.9871 24.1375 395.014 116 78 6
-5.69057 2.29879 423.309 117 82 16
-26.0241 33.3291 416.666 119 86 29
1.80149 20.6745 416.171 98 61 1
37.6099 66.4232 402.33 116 85 15
-21.8573 -14.1136 388.076 111 78 17
-31.1386 62.0405 387.465 118 83 31
34.461 47.3717 405.007 97 60 1
22.056 60.9209 413.566 121 88 28
-33.2011 23.2369 391.135 122 90 21
11.2992 63.6506 416.93 105 72 22
-26.0369 67.2088 378.607 117 83 24
7.5752 77.8756 412.605 122 88 28
40.5085 50.5998 383.554 99 60 0
31.6861 74.1102 406.524 122 90 33
5.98564 37.4334 413.658 111 73 11
-34.6099 11.7906 399.036 107 73 2
31.6295 80.2747 390.699 125 93 31
-9.24951 19.3802 420.561 120 83 24
5.82257 -6.64123 386.151 115 78 6
33.0217 27.4704 381.709 85 54 0
-5.81327 43.2171 421.651 114 80 15
27.5779 23.7265 395.413 108 71 5
1.91449 78.1081 373.652 126 92 31
3.38349 -11.1064 407.915 115 78 3
0.147831 -10.0205 383.823 113 74 16
-7.07558 -11.2392 381.808 102 69 18
9.30342 -18.4897 395.674 111 75 18
-8.25038 59.2372 404.077 113 82 13
1.25638 70.6351 375.048 114 79 2
-19.279 -4.38119 380.221 107 73 8
-22.8894 20.0292 378.14 103 66 2
38.6219 27.4542 385.004 98 65 2
-21.8952 58.3394 398.157 94 63 5
-28.3066 20.7894 384.545 102 66 5
25.0871 64.8286 413.798 128 95 38
-28.3619 76.856 417.059 106 78 18
6.99471 1.77687 413.78 103 71 8
2.31522 66.5462 414.899 85 55 7
-3.58214 -13.9199 385.378 99 67 14
8.05825 -15.2966 401.721 112 74 6
7.8851 -6.59741 399.024 130 90 12
-32.5492 28.8983 407.366 95 64 1
36.1806 73.7524 389.481 113 83 19
33.6901 56.434 408.885 115 77 22
-17.2486 69.7646 429.434 113 81 22
-6.93086 21.4271 376.123 106 67 2
-18.4271 51.1209 376.135 123 86 16
-25.7478 13.3815 410.148 107 71 11
29.3754 18.4744 392.962 102 66 6
-14.2268 -9.39514 414.473 131 95 34
-37.7698 74.7067 384.536 102 71 13
2.54453 15.9363 413.161 112 75 3
-13.3311 10.1861 375.678 105 68 0
6.59307 16.1128 380.638 100 63 1
-2.36044 57.682 385.625 119 84 32
23.2513 17.3935 384.627 96 65 10
3.46122 -9.83952 409.479 106 70 5
7.09732 77.5355 407.602 104 72 20
6.17195 -1.35422 382.516 103 64 3
-24.1551 74.9563 431.034 109 80 14
-9.84654 27.2859 375.122 115 77 6
-18.1354 74.6265 412.325 106 78 20
30.5233 41.2601 378.944 105 67 1
28.1889 21.6563 383.158 111 78 16
-27.7058 40.6293 416.529 119 86 28
-2.68438 64.1489 381.469 124 91 5
2.381 69.3125 413.658 87 56 7
-16.4116 -12.6755 384.539 112 77 15
-31.2503 1.93571 389.215 123 89 23
-30.1783 74.1778 416.546 95 71 21
-25.2035 61.5382 417.815 117 81 18
15.4503 63.092 415.96 120 87 32
5.33584 -6.68014 385.786 111 76 5
14.5032 23.8759 397.15 97 63 3
-4.98329 42.7556 378.141 109 72 2
-13.0962 58.0805 404.977 120 89 32
-38.9511 75.1876 389.568 109 78 14
-28.259 -0.227604 387.414 118 85 13
30.8874 64.5969 411.102 126 93 34
-11.1536 75.9763 416.045 110 81 25
-8.55046 38.5958 376.914 117 80 14
-7.58455 57.2153 421.508 120 88 35
11.4747 14.2798 394.659 111 71 11
17.0428 31.9911 403.436 106 70 2
19.9036 58.3249 369.368 105 70 1
34.859 63.988 408.204 127 93 31
-13.108 35.6595 376.807 122 84 24
21.4649 29.1489 394.064 111 75 8
0.531234 80.6057 386.04 125 92 32
-17.0484 -17.156 411.388 113 81 25
-3.99085 76.0325 376.254 112 78 5
-28.9493 14.4987 387.515 116 80 9
-34.9147 18.2231 402.323 102 62 1
44.0208 62.3457 391.932 137 99 36
-1.74697 25.8602 415.319 114 76 12
-4.60781 78.4787 378.802 115 79 17
-30.1202 1.51071 403.323 104 70 0
22.0607 78.5184 403.576 127 97 43
43.1961 62.5528 385.089 100 67 11
-25.5556 -19.6422 396.067 115 77 16
34.7895 49.4798 383.676 108 71 4
-10.3741 38.0639 376.38 114 76 7
-19.3923 56.5126 377.859 110 75 7
10.909 -17.5518 395.548 103 68 1
22.6101 17.0546 393.199 111 76 14
40.8584 36.3035 393.589 101 63 0
-29.9748 64.7507 394.273 113 85 28
11.8314 21.012 401.423 111 75 9
-11.7809 57.4767 399.578 124 89 31
-0.765936 66.2709 395.123 93 62 6
19.1562 80.6917 378.543 127 94 35
5.56688 25.9292 412.542 109 71 1
9.43851 16.812 400.881 94 57 1
17.7289 30.0155 384.497 82 55 7
29.3916 72.7088 410.092 124 94 31
-5.58114 -12.5937 414.518 115 82 18
-35.2172 5.66425 395.202 92 60 9
-33.4874 25.5615 406.369 96 65 1
-26.5135 68.4958 413.366 96 72 21
39.2732 56.9966 387.271 92 56 0
4.53257 2.53845 418.2 116 77 5
-24.4871 21.9426 416.18 102 70 8
6.96524 64.0234 417.237 94 65 13
-26.3524 76.1815 415.394 99 76 22
31.9711 50.6675 409.498 113 78 16
9.47531 8.18093 398.238 112 72 1
-0.50887 21.5965 375.23 110 69 1
-18.6067 35.9955 422.888 116 84 29
-22.0744 -5.51832 382.557 106 74 9
13.0645 66.757 370.714 113 76 9
31.6134 38.9842 400.812 110 74 12
9.04049 -16.1724 386.715 113 76 14
33.1395 78.2816 388.69 114 82 18
-14.2023 -5.7154 421.926 83 60 6
-25.4553 62.4658 417.67 113 81 19
-1.30557 68.2897 392.038 88 58 0
-5.32802 -13.5751 384.943 110 76 12
-27.3009 13.8278 382.815 83 53 0
-31.183 20.0423 389.399 110 76 15
-14.8665 -11.8793 384.226 110 77 19
20.4523 77.8709 411.543 132 104 45
-24.5061 2.5341 380.77 114 75 18
-28.616 -1.60595 403.41 91 59 0
35.8714 59.8107 407.647 120 89 27
32.5992 37.1331 399.706 108 74 6
0.849746 53.967 380.318 105 69 3
-1.6545 -7.17039 414.828 90 65 22
-21.9782 -10.6721 409.369 107 75 16
8.34243 24.6527 380.006 101 63 1
27.766 10.13 389.795 109 73 9
12.6526 23.3459 404.679 111 76 7
-13.8896 4.06533 376.563 106 73 11
5.8912 76.8318 413.019 106 72 15
18.3021 55.0784 371.118 107 70 1
7.89709 63.9344 374.635 112 75 7
45.8773 50.6949 392.163 121 81 11
-32.3693 2.41325 389.597 122 85 18
10.0484 -6.14509 391.125 105 71 2
-10.1426 5.26999 423.848 113 76 15
8.8167 -11.1144 402.126 85 50 2
9.10338 -12.0629 401.976 100 65 2
-33.5815 31.5483 406.464 94 64 2
-29.704 0.407621 402.236 96 63 6
-0.752095 54.8191 409.527 105 72 3
-32.6503 26.9707 407.277 102 67 1
-11.4058 56.517 385.518 100 67 1
3.81418 12.7599 411.141 109 73 4
4.53517 -17.2919 387.56 96 66 3
-31.5429 72.4609 381.088 118 83 29
-2.65229 33.5668 416.698 112 73 0
-15.7807 71.4309 410.907 110 80 22
13.3379 59.4417 413.378 123 89 28
4.95885 -5.65883 385.473 100 68 4
30.6153 39.8256 379.007 100 63 1
-31.2156 39.083 408.348 112 77 24
-27.1765 65.2635 415.146 112 82 25
16.3636 38.1589 378.752 101 65 4
-10.2872 69.926 425.046 121 87 26
13.6978 52.771 369.884 115 78 3
4.76004 46.1222 373.922 115 74 3
-29.9289 47.0636 400.093 111 80 18
-34.1075 38.9131 392.72 106 74 16
12.2261 66.4551 418.252 98 69 9
2.68703 19.2736 414.682 100 62 2
7.94373 -0.572165 386.404 113 78 4
-35.4125 21.3491 393.561 110 77 2
8.89824 -5.23547 388.381 114 74 14
-0.110996 14.9782 417.235 114 72 7
-0.361013 22.1837 416.013 96 65 3
-13.4964 19.7466 420.014 116 78 7
9.86051 77.4444 374.014 111 77 24
-24.6193 80.9974 387.501 123 92 35
40.8787 56.1202 386.013 93 56 5
-9.30772 47.7444 380.731 117 81 4
11.7873 36.0327 377.403 109 69 1
4.34341 65.246 376.128 110 75 11
26.4328 77.0572 378.488 109 76 12
-36.872 78.1637 396.764 123 92 38
-27.7186 75.6439 428.411 120 88 18
6.05422 25.1294 378.532 106 68 1
22.0451 46.7779 372.11 111 72 1
-35.3976 6.19085 392.499 109 74 6
-36.3853 23.7399 399.099 110 74 4
39.8419 66.324 396.184 117 85 25
-0.468344 72.8345 375.812 103 72 15
37.2695 60.239 383.194 96 61 1
31.3687 54.2982 411.889 94 63 7
-31.3003 57.5523 387.616 114 79 21
-26.4609 -2.1331 386.545 97 68 20
-12.4077 -15.5817 386.261 114 81 23
-25.4394 54.9475 379.71 106 76 13
-15.8867 3.44411 377.582 94 62 4
-3.68699 -6.54566 424.189 114 79 6
-38.82 75.9092 387.106 112 78 10
-33.333 31.7628 390.025 110 77 22
-13.3557 61.9255 428.675 117 84 26
2.52946 70.375 402.275 88 60 0
-34.1146 35.7398 388.831 113 78 11
20.6665 17.1405 388.11 83 55 2
-36.018 26.7772 404.57 104 69 3
-27.9595 -12.0698 400.074 103 73 7
1.96781 81.4353 378.289 135 99 36
24.7148 58.9211 372.784 110 72 1
-24.7168 62.6794 412.442 115 83 22
-27.6875 67.7347 426.371 113 78 23
-37.5852 28.2609 400.51 107 71 0
10.5774 -0.64549 394.15 113 75 5
45.9616 44.0463 389.62 120 85 22
16.9054 45.944 415.955 123 82 23
-24.5549 0.869403 381.331 104 69 3
-16.7117 -7.88015 414.598 126 92 30
-30.6547 63.9901 384.622 118 84 23
-23.3311 13.5509 412.748 114 82 24
27.2457 58.0138 414.618 128 95 31
-25.9916 80.2937 393.566 123 94 31
-17.9353 58.0441 424.61 112 79 26
4.54834 80.6123 387.246 131 97 36
-27.2779 19.5308 411.053 95 63 0
-4.1295 17.3192 418.384 110 75 1
12.9164 21.5812 387.968 101 66 1
-1.06909 7.4431 376.901 110 74 8
45.3806 43.51 390.885 119 80 14
12.0632 8.44432 391.556 111 77 3
23.9345 70.4375 414.582 137 104 47
9.74125 18.3051 404.7 107 70 3
-32.2763 75.6296 420.536 113 82 22
22.2994 59.0028 370.912 97 65 5
-8.69644 -0.335454 376.627 111 74 11
-25.435 61.3477 413.77 122 90 26
11.3911 78.6912 404.103 115 86 29
-36.1917 30.1376 397.986 106 73 4
28.769 44.787 410.472 108 71 4
4.46604 -4.65455 409.129 121 82 20
-24.8673 80.3416 381.445 124 87 25
-6.26224 -5.34608 425.277 112 79 18
-25.2863 65.4461 425.799 99 70 19
-31.1153 68.6682 383.234 111 76 16
-8.42922 54.8601 388.048 103 67 6
26.3752 17.523 393.321 110 73 5
8.91748 45.15 413.345 117 81 20
2.94532 19.0463 413.606 116 77 8
-8.74328 39.6859 421.937 112 81 21
-23.1286 -6.18496 409.776 116 80 9
17.3496 32.8358 381.563 95 60 2
-27.7857 24.4229 382.494 104 69 3
-4.7222 71.6716 385.993 75 47 13
13.3975 43.9837 371.994 109 73 8
26.9474 57.1509 413.797 128 92 21
7.74301 -7.58856 387.841 117 82 13
4.56426 59.1285 413.133 122 85 26
13.4077 41.8514 413.816 113 76 5
0.546293 57.1899 382.87 118 84 28
-21.7854 41.5054 375.713 120 87 19
26.3426 43.6628 378.741 90 57 1
39.7935 33.9213 393.436 108 70 1
-2.95887 80.5768 383.488 125 91 27
-1.76471 65.3497 393.546 92 61 0
25.5379 35.9145 399.151 93 64 9
-6.39127 40.2296 421.62 115 79 25
22.9142 36.347 382.031 76 47 2
-21.4562 51.4582 422.753 115 83 24
-24.8252 9.10679 379.89 90 59 4
23.6693 77.8035 409.295 130 99 37
-34.9261 15.427 401.36 112 79 19
-13.5799 38.6263 376.099 96 63 2
9.37435 19.4482 382.969 109 68 1
-4.67705 53.2984 418.182 115 80 13
38.376 37.6181 395.619 111 74 6
-34.4487 4.54317 395.671 115 77 11
-5.59677 3.98117 377.408 104 68 2
25.6087 64.6103 413.442 128 95 37
4.27452 33.6279 413.539 102 66 1
-23.6916 62.1021 397.306 88 60 5
-27.4349 -13.4393 384.278 119 85 27
47.4098 52.9445 386.988 119 84 24
1.06648 -13.929 412.584 115 78 19
3.6444 61.7583 414.307 106 72 16
-27.1562 -14.2068 404.615 119 84 24
-31.3277 47.0292 383.457 107 78 20
-4.65376 6.5646 422.439 102 72 20
-32.6774 22.4681 407.91 97 64 0
-10.4418 35.7917 423.031 104 72 10
-2.18573 55.0984 384.546 103 73 5
-23.4517 14.7487 412.703 113 78 11
11.3432 33.2367 409.361 113 76 14
-17.9878 57.1697 378.644 118 84 6
-24.9497 22.5143 416.136 110 74 3
-3.25163 75.6183 375.483 116 82 15
-29.363 74.0961 416.04 95 70 19
-8.31491 -3.51921 377.749 113 75 9
44.7536 48.0072 392.5 117 80 6
-12.1496 70.4769 426.306 109 79 16
-29.1212 69.6788 397.795 92 65 5
-12.9465 -14.8543 385.683 112 78 15
10.7667 55.6614 411.592 110 76 13
-15.334 19.4868 375.988 121 81 16
-36.2726 7.87804 394.463 97 65 0
-32.5355 69.8785 418.2 116 88 14
-35.0868 29.4654 395.84 113 77 15
22.0865 14.2433 388.581 76 51 1
19.4464 46.5273 372.107 103 65 1
36.4235 31.9057 394.616 108 71 3
-29.5702 15.5484 408.161 102 66 0
7.75109 7.22758 402 112 74 1
-5.00585 -8.82163 380.376 109 70 9
6.06879 38.0823 413.693 109 70 5
20.1123 73.9998 418.367 125 96 38
-19.2785 65.6713 428.707 116 87 36
28.5124 37.7805 400.636 104 68 7
22.0245 79.317 398.996 125 96 39
36.7365 72.8605 389.659 112 81 30
26.5892 78.0247 406.417 129 96 38
15.7867 53.7579 369.935 117 84 12
-33.9647 5.33863 389.632 114 78 16
36.2625 43.2782 395.301 114 74 7
-4.30631 18.5811 418.072 113 75 3
-35.8349 20.0969 393.96 108 75 2
-20.2319 -5.59845 413.695 114 82 17
-8.41765 17.4642 375.006 110 73 1
4.81534 75.7956 417.831 107 74 17
4.77227 65.6705 375.83 112 77 12
-7.74527 -17.7718 389.319 108 77 19
8.01287 -0.243621 399.839 122 82 7
-36.3325 26.9112 397.712 111 77 18
-4.79084 60.1424 389.423 78 50 1
-6.10497 -16.4251 414.164 108 75 14
-24.0738 23.2087 378.347 109 73 0
-31.6061 -11.9116 392.722 115 82 21
-36.1233 19.5383 394.144 107 74 11
21.5761 34.3035 384.075 85 56 3
-29.8306 -3.66724 388.599 123 88 25
-22.6726 20.7026 377.499 108 71 3
-26.4581 43.3369 418.759 118 88 29
-19.0957 65.143 428.458 116 84 30
-29.5072 15.6518 387.732 118 84 24
20.4125 76.0761 415.788 125 94 32
-28.6429 68.6147 427.232 111 83 6
-26.5476 18.3448 381.57 104 72 2
31.8358 23.4577 383.21 97 64 2
5.06959 -17.4217 400.511 113 73 18
19.6043 62.3634 368.656 115 79 1
-28.6127 23.464 384.239 99 66 6
-21.5029 23.0082 377.553 105 68 1
1.06533 11.2913 418.891 95 62 1
30.8659 80.4125 391.307 133 101 31
-0.203267 28.3879 415.064 113 77 12
4.39614 77.2217 396.704 104 72 21
29.1632 69.006 411.646 130 97 43
-8.83589 3.62801 423.972 128 84 18
-6.81402 26.2459 418.47 105 69 0
-6.75872 27.176 418.136 117 82 24
40.495 55.5136 388.312 83 52 0
11.858 11.1858 392.517 110 75 1
-26.5742 25.425 381.474 103 68 3
-7.26878 48.594 423.509 121 88 27
32.0044 47.091 381.578 100 64 1
8.07267 63.5614 416.724 108 75 18
-24.6517 50.908 403.987 111 79 13
-36.7648 81.1215 385.773 124 93 30
21.6008 70.9067 417.795 136 101 33
-31.4055 42.3372 406.361 115 84 27
-1.9259 25.1581 415.236 116 79 14
-29.3279 63.0653 382.5 114 82 28
-5.60305 57.8082 390.367 92 62 1
-21.1747 46.6911 375.634 119 82 10
-28.3294 76.5185 424.381 129 98 44
11.0185 66.3187 371.889 117 79 10
4.66848 38.8825 376.007 116 72 2
5.01895 62.9047 377.093 114 78 0
-16.3648 76.9388 421.989 60 28 1
-13.9542 -12.629 412.784 124 94 25
8.08475 57.89 373.178 101 67 2
34.4826 42.7635 397.509 92 57 1
-3.03766 14.1695 375.65 106 68 1
14.2387 27.8481 406.221 97 60 2
-26.734 40.0498 377.538 117 83 26
9.11828 7.68987 398.669 113 72 1
-13.9797 -12.277 384.274 107 76 13
-7.09631 72.3098 381.359 95 71 4
5.39926 75.9606 418.8 118 85 8
26.5668 27.3339 396.007 109 72 7
-17.2112 49.1472 375.754 123 86 4
20.0459 55.2226 372.256 107 73 1
-36.8899 78.5508 394.44 119 86 27
19.8557 75.7366 417.025 120 92 30
9.60997 8.36959 398.018 110 71 1
10.1892 34.232 377.176 112 72 0
-37.388 26.6836 399.717 110 75 1
-8.99874 11.1226 374.357 110 72 3
-2.10478 52.9709 410.934 95 67 8
4.33917 61.591 414.549 109 72 8
-13.5936 66.9746 409.287 109 81 21
1.49033 48.9332 376.746 114 75 0
-30.6205 16.8953 407.851 98 64 0
13.4558 48.1177 415.849 118 82 10
9.35136 8.55384 386.691 101 65 2
21.7147 23.3051 384.477 106 71 8
6.70883 55.6799 372.808 106 69 5
-27.3752 0.287274 385.588 99 70 13
22.0888 67.2095 417.127 130 100 42
14.7027 37.6599 408.52 111 75 10
19.764 78.1286 408.182 124 97 41
-33.2568 68.6213 393.134 108 78 19
-29.6398 67.3664 415.632 110 78 15
47.6865 52.8956 390.055 122 85 20
40.7543 34.4012 382.516 96 61 0
-32.3163 -1.9941 397.3 113 77 13
-4.33749 -8.28123 417.811 95 67 17
-30.5261 72.6215 380.566 121 90 29
-0.488848 4.56223 378.492 104 66 1
-22.8726 77.6488 416.191 121 90 33
-5.02602 -8.12177 424.181 103 65 1
-19.4909 60.2458 424.242 117 86 28
-32.601 24.1556 390.849 124 91 28
7.67954 -11.9704 405.827 120 81 14
7.24372 77.549 417.465 131 101 39
10.9955 25.8125 408.014 108 70 1
-3.31937 32.8885 416.915 110 71 15
11.9359 38.0615 410.369 109 74 17
-29.0362 43.707 379.842 109 74 5
-20.2503 76.426 425.274 40 17 0
-25.0897 -3.43943 409.037 91 61 6
-28.9501 2.99457 406.142 107 73 8
-13.0974 63.5269 393.88 110 76 18
9.51475 65.4085 418.54 119 85 27
-8.9146 58.8129 403.842 118 85 24
-31.1456 53.933 393.275 100 68 2
14.2869 78.1851 407.475 115 83 31
3.69521 73.7018 417.132 90 62 13
-7.96148 12.2713 421.678 117 80 9
24.8484 80.8929 381.756 125 91 27
20.9404 73.3118 417.502 124 91 27
25.7364 24.7399 395.799 117 79 17
-6.46052 75.4411 377.849 116 83 25
11.1338 -17.3067 394.038 106 73 2
-32.58 47.1995 395.209 113 81 24
37.0782 45.4459 394.275 111 75 3
-1.30436 50.3826 380.536 107 69 11
38.9764 34.7991 381.606 98 59 0
-24.0851 -20.0514 398.858 122 86 25
-32.3768 31.804 384.963 111 76 3
7.19344 -7.63247 400.023 105 66 1
-26.632 -16.9149 403.154 122 85 19
42.1038 58.2899 384.094 107 70 1
-8.40678 58.2056 395.98 123 91 29
1.39185 66.9319 405.438 87 58 1
32.8152 31.0664 381.354 66 41 0
-31.1724 -11.8329 388.392 114 86 18
-32.9281 7.96148 388.21 116 82 11
-20.6567 21.2573 376.752 95 62 2
23.3154 64.5692 371.716 104 68 5
26.9052 81.0758 386.107 124 95 34
-15.4835 63.3812 382.353 108 74 4
33.6485 44.8166 401.988 99 61 1
-29.931 62.1894 393.825 116 84 32
25.4293 54.6526 371.962 104 68 1
39.8411 33.7502 393.409 108 71 1
3.47606 4.27776 417.566 94 60 3
-19.8538 74.9648 380.474 118 82 21
32.9149 68.9754 379.272 96 65 6
-33.6924 33.7853 405.757 114 78 23
-30.7475 0.221882 389.018 119 86 14
-27.3447 75.7228 428.562 122 90 25
-0.221817 44.5063 377.389 112 70 1
-12.2667 32.7708 376.387 101 63 1
-12.4542 75.0886 426.335 110 81 23
-30.7439 51.967 395.705 113 81 28
-18.1283 22.5149 376.428 114 76 5
-22.3257 -7.38785 411.023 117 82 24
-17.3872 66.3118 409.497 101 75 18
-26.9449 80.2736 393.555 119 90 31
-7.88746 -14.9052 415.742 127 90 19
35.2847 66.8736 406.696 125 91 32
-1.41329 79.8025 377.005 123 87 32
28.2639 14.4607 384.364 112 80 9
7.79613 -14.237 382.617 111 79 23
41.5627 59.17 394.221 124 84 10
-13.3615 20.2861 375.377 97 61 0
-3.68333 18.4014 417.82 110 71 2
-16.1767 -7.3397 381.602 110 77 16
40.2252 53.251 385.466 81 46 0
13.6156 49.8691 370.349 115 77 11
-28.307 40.3281 414.329 121 88 19
23.8964 79.6965 395 96 69 9
9.41895 15.5094 399.264 104 67 3
-12.3792 64.9572 427.8 109 80 24
39.2283 55.8071 394.716 97 61 0
-23.9463 63.4768 377.991 118 82 21
-23.694 24.7443 416.659 92 63 1
2.03808 39.3864 414.942 106 70 1
0.73906 15.0126 416.896 112 75 1
35.1496 27.8628 394.648 116 79 7
-2.72887 71.9128 388.145 79 51 10
-5.19061 -10.4857 415.131 105 75 24
17.098 67.7511 370.191 91 59 1
28.6256 79.1152 382.326 109 77 15
-8.96436 42.8723 377.063 104 68 2
1.49256 72.3428 395.233 91 61 8
-14.6017 5.01946 423.335 108 71 1
-21.4649 64.8836 377.993 117 80 17
-25.1361 3.99943 381.757 111 75 14
6.65923 1.60901 383.085 113 72 1
38.612 26.9038 390.448 103 64 0
42.0677 60.4014 384.126 106 73 13
27.6471 60.9794 372.238 111 76 16
-22.4756 71.5708 431.471 111 83 23
-6.27061 22.8145 418.959 105 70 1
-28.3926 -6.53657 388.835 128 91 19
-24.488 41.5601 376.413 121 83 14
-34.9473 4.2928 393.885 109 72 3
-26.7511 -1.5699 408.969 100 67 0
4.4365 27.1679 377.226 112 73 3
-23.8943 38.4853 376.201 120 82 11
-24.0681 81.1298 382.822 119 82 22
0.297798 70.7016 393.64 90 61 4
17.968 26.7256 393.557 88 59 12
-1.27289 59.6015 405.484 94 62 0
-21.2891 72.7519 412.361 99 74 25
-29.9745 5.46966 405.794 112 72 19
2.42668 31.6279 376.005 116 75 10
-29.8199 45.8573 380.948 110 80 15
34.4024 35.9435 398.056 113 75 9
-3.03433 -14.9167 386.89 94 69 25
41.1357 39.8451 394.042 106 72 1
-35.6244 32.1001 403.075 92 63 10
31.6513 30.4756 381.475 91 66 2
-28.4967 3.7407 387.418 113 78 4
-8.47947 64.1764 422.094 120 85 23
-5.72648 -19.5225 407.041 110 79 12
-0.710851 -19.2582 395.602 105 72 13
-18.0904 62.7204 379.653 120 84 16
-15.9822 63.658 381.691 109 76 15
-26.7476 66.844 397.217 87 61 0
1.63614 47.8529 413.826 96 63 4
2.34684 -5.11482 413.942 99 66 11
-12.2589 56.3065 424.809 106 77 17
-20.8307 4.11487 415.954 115 78 4
-12.3234 -2.37418 425.086 122 82 10
-12.0002 32.5784 376.062 99 65 1
4.84725 5.80346 406.5 97 61 2
21.2743 19.9226 392.854 107 75 10
21.8871 55.6519 413.531 100 72 3
15.3755 24.0632 391.661 80 51 5
-31.5071 44.3704 403.612 115 85 25
2.7756 -4.76515 414.194 100 65 9
-8.35196 59.9385 406.606 118 84 15
2.90192 -1.24537 420.815 106 70 5
42.2617 33.7156 390.848 105 70 0
6.70383 80.9693 375.163 136 97 31
-2.84801 42.4859 419.009 111 77 9
-24.1549 17.1745 378.82 109 74 15
38.4314 55.2532 400.777 103 68 7
30.9943 51.7187 376.444 87 55 1
-28.9495 61.5041 394.986 113 81 24
-30.0909 -13.4936 387.083 115 81 19
-3.18106 -15.1204 386.954 98 69 13
-27.3831 -17.2994 391.759 119 82 17
6.20093 -12.2287 406.996 125 83 8
22.4456 24.1152 383.77 98 63 0
2.99753 71.8877 374.125 110 74 11
9.15694 12.7115 386.074 112 73 17
30.2083 71.3028 410.091 126 95 36
43.7089 58.1937 393.239 126 90 21
-3.70792 58.487 404.667 116 81 17
34.0997 76.9866 389.14 114 83 26
47.1721 50.3064 390.38 124 83 10
-33.8336 69.7306 393.482 108 76 17
21.4607 46.516 412.68 97 65 0
-24.3671 47.8338 420.821 110 81 18
45.4153 60.8383 391.388 136 95 23
22.6659 14.0483 386.449 93 63 1
6.75794 2.72872 412.127 92 59 2
-28.6382 23.7297 384.356 95 62 0
-14.1935 33.1043 422.962 122 88 31
-31.6357 32.4383 408.966 114 81 26
28.1853 80.6882 384.165 125 91 27
14.6585 40.4366 412.697 109 70 6
18.4574 74.4776 419.592 121 89 28
7.02393 -3.76196 385.714 93 61 2
-24.3122 51.1062 404.134 110 79 21
-22.825 75.7292 429.976 127 97 32
14.8807 40.4342 374.451 93 57 1
-29.9318 0.996815 401.989 96 64 3
-23.8185 62.6689 378.246 120 80 19
38.9584 60.7672 401.268 113 77 17
27.0049 34.3036 380.583 94 60 2
23.6708 21.4728 394.742 123 86 20
-21.8192 43.5464 376.197 121 84 17
-5.26884 76.4074 384.203 80 54 15
-9.66683 26.7928 375.122 117 77 2
-32.6795 -4.55461 394.25 107 72 3
-26.0116 51.8421 410.552 112 81 22
21.2082 29.5996 384.665 93 58 8
1.58615 -5.80455 413.726 118 82 15
23.3324 38.7131 406.724 87 53 2
-0.853856 -19.0899 403.45 113 76 15
1.76211 54.1165 378.343 103 69 4
4.58718 14.5638 380.009 104 66 1
2.16605 15.8031 378.4 114 72 2
-3.39485 66.0417 389.884 82 50 0
-3.2492 61.5439 394.88 102 68 0
0.302662 66.2802 399.015 94 61 4
-1.32595 31.3574 375.744 110 72 2
-26.9738 29.6574 413.291 111 80 17
23.6734 13.6804 385.405 104 67 2
17.3465 78.0459 409.971 126 98 40
2.33944 4.56852 419.948 104 67 3
40.0139 57.7722 395.009 104 71 8
-30.3912 67.7123 395.962 110 78 3
-27.5694 0.448603 385.802 105 74 10
28.9638 19.2665 393.997 114 76 4
6.34973 25.1739 411.792 107 69 2
20.0541 35.4521 382.368 96 66 10
14.7596 79.8145 391.474 119 89 21
-12.0172 47.6216 378.414 108 69 2
18.9334 27.1163 388.708 74 54 1
-31.9599 54.554 390.207 111 75 6
-26.9812 48.5027 410.692 119 86 16
41.3606 42.1598 382.076 93 55 0
10.4155 17.566 397.97 103 71 3
-5.05063 -1.97821 423.73 121 83 6
3.96699 77.9449 373.9 128 91 31
17.1979 79.2634 390.253 116 86 10
-19.52 2.01716 379.439 99 68 7
-6.6121 58.1552 392.455 107 74 12
-34.5784 36.5938 398.277 114 79 19
25.1403 60.5629 372.446 107 69 1
12.4734 71.4261 372.414 118 77 11
-32.9939 39.5634 382.84 111 78 11
-14.5073 57.4896 398.811 125 90 29
-30.9203 -11.5334 394.389 103 71 16
25.7979 22.6282 382.978 101 70 9
-22.5101 -7.09913 410.884 116 81 24
23.9787 81.1691 381.818 128 97 36
1.26966 13.6002 416.552 115 78 4
8.62164 58.5237 373.356 97 66 0
-30.559 7.78733 404.899 108 72 10
-34.6909 40.451 388.023 110 77 16
-30.4196 9.5127 404.419 108 73 12
3.37102 -3.11775 380.738 109 75 8
7.53924 -13.1354 405.878 120 86 3
-18.7026 76.9106 393.927 102 73 21
42.1642 58.0065 393.131 116 80 5
28.2122 10.6302 389.754 116 75 7
8.28148 35.5283 412.029 115 72 7
-26.2312 0.94506 382.772 104 70 11
19.1812 61.6868 414.806 111 79 18
-29.7934 66.3116 421.116 101 71 10
23.678 29.0893 382.998 95 60 0
-25.539 19.4929 379.729 107 71 1
4.62915 -3.54248 412.434 93 64 3
22.6509 20.0691 393.881 112 75 14
23.447 68.7202 372.37 115 77 4
32.1343 58.9235 376.072 92 61 1
12.9546 73.6662 420.346 123 91 30
-11.2111 40.7523 376.136 118 79 7
-33.4408 45.1745 393.272 107 75 12
4.74075 76.6386 372.298 121 87 23
6.23231 0.241667 381.773 110 68 6
-5.59122 12.5713 420.703 128 87 10
18.5599 57.5885 369.775 104 64 3
-33.5372 -1.47091 395.417 108 71 2
-34.0289 46.7741 389.097 112 80 20
33.665 61.6123 378.143 92 62 1
-17.2995 51.1353 424.52 116 85 30
8.83785 23.7259 380.98 99 62 1
11.6123 71.7846 372.556 118 83 21
19.199 31.2751 384.977 81 53 2
26.5698 25.9875 396.063 113 75 5
7.98513 -11.954 405.488 123 82 1
-17.978 14.3581 419.124 108 77 6
3.98059 57.0589 377.388 99 67 0
-27.9093 -2.54092 387.369 117 83 14
-34.5468 5.03076 395.549 108 74 15
21.8822 77.6795 411.295 130 98 37
-11.5925 60.8187 391.582 95 64 4
5.27974 19.2739 409.011 120 81 13
-10.5403 64.9937 425.901 120 84 20
-19.5181 66.2536 396.348 82 56 8
25.1934 43.2214 378.119 79 54 8
14.6804 52 415.352 109 76 15
22.6013 18.8963 393.694 115 80 14
-35.5967 12.3272 397.564 105 71 3
20.3686 76.8816 414.76 122 94 34
26.8735 73.3235 376.187 106 72 4
-9.10905 -11.3679 415.436 127 91 30
27.5434 28.6802 381.666 101 65 9
37.565 29.5829 382.624 89 56 0
32.4376 27.5564 381.633 77 48 0
39.9713 66.165 385.475 115 76 16
30.1046 9.77648 388.775 106 69 11
2.6408 48.3373 375.274 113 73 6
8.34755 8.0306 399.887 114 77 4
-11.853 39.4686 375.96 120 80 8
-18.2873 -13.6909 413.317 120 86 15
-29.5363 -4.27417 399.018 109 73 3
16.7766 28.3514 399.848 104 64 2
21.2884 29.81 384.579 94 58 2
-30.0149 10.7741 404.777 111 72 11
0.0882371 -0.829472 422.615 115 74 2
-27.5964 2.53797 407.097 100 65 0
-30.3273 70.1924 397.922 94 65 1
-22.8006 0.0133278 417.415 115 79 10
0.0227422 13.8296 378.364 115 74 8
-1.59757 69.3097 376.662 127 89 10
-4.19017 57.0676 387.648 111 76 7
-34.479 44.0907 390.325 112 79 21
-10.0738 39.9899 376.659 117 81 10
11.5538 25.4614 381.868 94 59 1
-7.10079 10.4565 375.305 106 66 2
7.04118 -0.00294137 384.044 105 67 1
16.2368 77.8606 414.605 132 101 42
32.7027 39.0197 400.183 110 74 9
25.6213 66.146 413.642 130 96 38
35.29 37.008 380.168 103 62 0
15.1788 78.0879 412.703 131 97 40
0.438582 66.2094 399.906 93 61 5
-1.47793 24.1133 375.064 110 70 1
15.1567 54.3332 369.854 118 79 16
-12.5015 63.1795 392.223 100 72 11
-19.3852 48.5196 375.292 120 81 14
44.179 59.0018 384.247 99 66 7
-39.0929 76.5488 387.512 107 77 15
31.8141 22.4677 392.883 99 66 11
16.2558 32.6396 380.73 100 61 1
-26.2946 68.7694 379.49 105 71 8
9.97225 6.28769 395.912 106 70 1
36.5079 35.0065 395.904 111 72 2
23.1218 32.3408 383.417 102 67 3
23.8676 66.0471 415.226 132 98 40
4.71211 6.96275 405.145 119 79 2
20.8118 37.7888 381.608 101 66 2
-32.8921 74.5126 421.168 118 86 19
13.7588 65.1699 371 85 53 3
-31.2316 63.7781 388.952 115 82 28
-6.56402 58.9732 405.952 117 80 8
47.4031 56.25 390.959 125 87 19
-21.8507 49.2988 421.904 114 85 25
37.6178 56.2859 404.438 103 67 2
-2.13368 61.0304 401.442 102 68 0
10.5417 7.12312 396.097 116 75 4
-26.6101 80.1971 381.47 123 85 25
-22.7282 54.5258 399.571 103 73 12
-31.7088 -5.42101 396.142 115 77 13
-5.31442 75.5947 384.428 79 51 15
11.4232 40.2455 411.215 111 77 18
7.42448 69.3638 372.448 112 73 7
5.80147 -16.8811 401.378 108 74 17
-18.2846 -2.30564 421.884 111 76 15
-33.9213 36.8095 405.017 107 74 5
-26.7075 -1.64962 408.966 99 67 0
-25.3238 31.605 416.3 110 75 14
-27.0148 39.7229 417.786 118 86 24
36.5988 44.8508 382.29 92 54 0
-27.1594 17.4224 410.192 101 69 14
6.78806 -1.19762 408.027 93 56 2
-4.10801 39.1758 419.642 116 80 19
10.5572 -14.4702 386.844 117 81 19
-10.7409 18.4083 420.38 102 68 8
5.00047 -6.23592 385.598 105 68 2
-30.0186 7.6386 406.232 108 75 8
-5.9888 50.8659 421.45 117 83 22
-3.0863 79.1984 385.338 95 66 14
-31.1822 -16.0974 397.433 114 80 19
-25.9483 37.0546 418.605 118 86 30
-30.361 46.1046 403.191 118 84 23
1.49734 -16.1587 388.593 98 73 24
22.1069 17.8277 393.061 111 75 15
-17.3745 13.2636 419.969 101 72 14
-6.02362 18.164 419.866 118 76 5
13.7875 58.8717 412.87 116 80 17
13.6975 78.1166 410.823 123 92 35
23.8719 27.3311 382.517 100 64 4
-19.5447 27.1032 418.306 117 84 25
-26.5771 32.8726 415.009 118 84 16
38.3599 41.5294 381.222 101 65 3
-24.7399 19.0727 413.45 99 67 6
31.0815 75.5989 405.709 120 92 23
40.2519 46.4991 382.509 103 66 0
-22.4534 76.6566 421.508 5 0 0
-35.0594 11.9339 398.533 109 77 11
-24.8679 66.5041 427.039 100 70 3
-23.5756 29.6008 377.401 111 76 8
8.47826 -10.3169 397.55 102 68 3
10.3809 43.138 413.296 120 80 5
-37.2182 80.8582 383.87 128 95 35
-3.4057 -9.67696 381.873 106 75 17
-29.6778 26.6323 385.801 102 67 3
17.5621 61.1107 369.362 96 62 2
-27.3894 40.6836 417.265 113 80 16
-28.9022 -17.9627 400.376 123 85 13
17.0636 75.0562 419.6 122 92 35
11.1622 6.48101 394.871 115 74 4
-14.0314 -2.02995 424.755 121 83 25
-6.66074 50.5103 422.791 116 82 16
16.5547 39.6568 376.316 86 52 1
-22.8599 24.8614 378.588 112 74 7
0.599934 58.5776 382.657 122 87 27
37.4714 70.9424 397.584 119 87 27
-3.8303 60.0816 397.978 105 74 9
36.828 45.9499 394.452 115 80 24
22.2074 66.5843 371.825 100 67 3
4.79039 20.0244 411.726 109 72 1
-17.9618 -19.3372 405.791 117 81 10
33.2007 21.3083 390.645 86 56 1
32.6826 79.3531 393.655 129 97 35
-0.079312 -17.8419 391.901 104 70 5
-33.4731 -0.557415 394.52 106 73 3
-26.8219 -4.81609 402.824 102 67 2
-31.5135 39.6776 381.202 118 86 8
-10.2726 63.3999 425.96 120 89 28
24.6775 59.7498 413.952 125 87 25
34.0583 37.13 398.681 110 74 15
37.5661 45.0308 382.21 98 61 0
7.14929 17.8424 379.938 102 63 0
-29.4428 -7.9174 390.245 123 92 30
-35.8754 24.3454 397.203 106 74 5
18.5001 40.064 412.165 108 68 13
-29.7327 61.8839 394.08 113 83 34
34.8609 22.0294 389.106 103 69 9
32.8601 21.0602 391.616 97 61 1
-7.3223 76.2473 379.964 112 83 20
3.71668 6.40704 410.622 107 70 2
15.387 35.8947 378.72 104 67 1
-31.0327 19.0539 409.088 109 71 3
-22.2461 62.6111 424.585 120 89 29
-23.1334 13.8059 377.423 107 73 10
46.4647 48.8584 385.578 109 75 13
-5.43072 -9.06617 417.292 87 59 19
33.8264 44.1261 399.543 97 61 1
-8.79808 68.0535 414.939 101 70 11
-4.08389 -20.3244 400.389 113 76 5
-26.8632 64.181 416.809 117 85 30
33.6293 64.1584 378.301 94 63 0
-24.187 80.7007 390.368 117 83 27
41.7963 47.3289 393.519 114 75 1
-0.24648 16.3433 417.128 99 64 2
-30.8662 18.3085 408.973 106 70 0
-26.4793 79.9027 392.459 5 0 0
2.3288 71.4219 399.045 90 60 9
-18.4782 -19.3081 405.338 117 81 15
10.6364 28.2653 408.271 104 68 1
4.74171 43.8121 374.902 103 64 9
-23.2603 58.9579 378.626 115 77 8
30.4591 79.8518 385.356 112 78 9
2.28072 4.19547 379.996 102 63 0
23.0704 39.8919 410.134 90 56 1
-30.031 -1.10628 400.432 112 78 9
-14.7268 69.2419 387.533 99 67 5
45.6984 43.5802 390.167 121 82 22
29.6396 40.3624 401.371 105 69 3
19.7408 40.0734 378.276 83 56 7
33.5587 71.9297 381.891 97 65 2
-3.33839 61.6614 383.6 116 80 0
21.3221 18.5125 392.347 110 76 11
40.2918 52.9114 390.54 83 55 3
6.61962 2.07298 383.387 111 75 1
-21.5641 73.5388 396.184 84 57 10
-27.997 68.5307 414.193 99 74 23
-11.0967 38.0744 375.918 119 82 12
-25.6898 66.7448 397.296 84 58 1
33.4289 61.394 409.233 119 84 29
16.1006 58.791 370.374 96 58 2
4.65696 25.4995 377.852 110 70 1
8.30015 15.5407 402.616 95 61 1
-31.9797 48.0795 395.825 114 82 23
-12.59 -4.9493 424.96 115 81 27
-36.0708 29.1938 397.28 108 72 3
8.098 44.0803 412.892 109 72 8
5.69017 -3.23734 405.878 101 65 2
-27.5489 49.6038 400.076 112 79 21
-17.762 8.85399 376.444 89 60 1
36.2455 48.4273 399.874 98 62 1
-7.4349 63.4714 416.89 105 76 14
37.3504 25.4881 390.189 97 63 6
-19.1071 60.7817 379.197 126 90 32
10.5357 -12.0958 396.537 106 71 12
-7.89682 58.2736 395.157 120 88 29
26.2523 38.0794 400.672 100 64 5
-14.5684 39.7762 376.081 100 64 2
-4.80178 49.6002 419.403 115 80 30
-23.5934 12.9666 412.419 110 78 23
-33.1598 78.3759 382.073 113 78 20
-14.8343 29.9987 421.813 120 86 26
-24.7313 39.3501 420.285 111 79 14
22.4289 13.6878 388.935 72 45 1
25.6549 36.3084 380.243 83 52 2
2.58657 -5.97411 412.63 124 88 28
-5.42927 -20.6014 399.118 109 74 10
-19.9901 59.1876 378.9 123 88 13
-21.6795 80.9589 386.838 119 89 33
-24.9206 51.9626 378.717 99 64 6
-7.36368 59.2068 420.923 115 84 27
4.85451 1.81185 380.593 100 62 0
-32.4253 16.5258 405.233 96 66 9
8.47939 26.3923 379.084 107 66 1
30.7937 16.5901 385.887 114 76 5
-11.4442 -3.61011 425.084 115 81 10
3.83651 -16.5296 384.956 98 64 3
-1.20021 -18.6356 404.847 107 74 19
-5.56989 -7.56042 424.967 99 70 6
-8.25931 -9.62999 380.359 118 82 23
-10.9177 70.0285 411.641 118 85 16
20.2848 54.5784 372.221 109 71 1
-29.7151 1.32017 404.803 103 70 2
-36.9188 19.3009 399.261 109 74 10
-30.4421 8.8808 404.804 111 76 9
-3.66914 57.7789 406.159 112 79 20
-6.4998 38.3729 421.213 107 68 0
-18.0839 22.2016 376.236 115 75 9
38.1275 50.4085 384.783 101 64 0
-5.46455 37.5464 376.157 113 73 3
7.17678 12.919 381.736 108 67 0
-25.7216 -6.33912 404.835 111 73 0
-21.6798 70.7406 431.055 121 88 36
30.4708 15.9836 389.703 105 69 4
-9.36457 60.0843 406.397 124 91 34
-29.2889 12.1917 405.742 111 77 20
-18.0149 4.52956 420.607 114 81 15
-9.58586 0.877023 375.902 103 67 10
-14.7716 57.9773 398.098 120 86 27
37.4756 71.75 395.458 119 87 28
-5.15159 0.885242 377.446 100 63 2
-29.0888 80.2793 389.516 0 0 0
-14.8356 32.9146 376.006 121 81 8
16.5311 55.6879 413.787 103 71 9
-25.9996 -7.92333 387.598 119 85 21
0.548579 -0.00301643 379.534 111 71 1
-5.33294 59.2717 392.343 100 69 4
30.98 79.457 397.066 136 101 41
41.9063 65.1835 390.695 131 98 43
15.4899 72.5845 372.259 111 74 3
-22.5287 50.0171 375.979 116 79 9
-29.9649 -10.3819 394.069 101 70 6
35.1122 58.091 380.93 89 55 1
0.160447 66.8657 397.315 94 62 3
22.6398 14.5302 391.421 93 61 2
-11.8382 46.5026 377.738 112 74 12
1.78174 72.6087 373.903 118 77 16
-3.72015 -4.54714 379.13 106 67 4
39.9392 60.546 397.608 107 72 4
39.0305 59.3442 384.75 92 60 1
18.6434 58.5901 369.102 111 72 4
9.89993 60.1659 413.954 117 83 24
-38.6184 76.3858 390.368 114 83 24
-16.5002 27.9732 420.615 116 85 27
-9.48121 66.44 410.917 108 80 19
-21.2149 3.3095 417.119 98 65 1
5.94414 -2.95521 384.31 97 64 5
7.08503 77.6118 405.634 105 73 18
19.346 80.4199 389.189 114 88 23
23.0899 53.0156 373.191 98 60 1
0.125376 -4.45171 380.869 98 67 6
-28.6982 57.0844 395.823 112 76 11
15.8352 28.5467 401.983 95 60 2
-15.11 5.50052 423.078 113 77 3
-6.72357 70.0749 382.149 102 72 4
-0.360836 19.6233 375.984 97 57 1
23.6281 47.5095 411.614 100 67 0
10.6354 26.6714 380.218 101 63 2
24.982 27.9043 382.101 98 65 0
-12.6567 25.5165 375.189 111 71 1
10.9379 33.6084 409.654 110 77 15
12.3502 51.4767 414.865 109 76 15
12.6043 29.2281 407.588 105 68 1
-30.6488 24.3103 389.117 121 89 29
-12.556 5.41815 423.809 122 84 20
-3.21822 52.5933 414.463 110 76 7
43.4894 42.4176 383.387 99 59 0
-16.8964 -9.77265 382.749 103 70 2
-23.5327 -16.7458 388.628 100 66 6
3.92461 19.0927 412.724 111 74 1
30.1686 44.4961 379.621 105 68 4
5.53559 5.55037 405.61 102 64 2
-2.23821 42.0048 417.694 119 82 16
-20.3273 38.5223 422.761 112 79 14
-25.479 59.8056 379.616 119 87 32
-34.2688 28.5149 406.355 92 61 0
-35.3177 9.4919 391.377 98 68 5
-35.2242 17.2125 401.835 106 68 2
24.1249 38.5186 404.823 88 56 2
-26.5002 -16.511 403.872 122 87 26
15.598 78.0737 411.451 126 95 38
8.89913 -18.5785 394.179 121 80 7
3.51277 11.2436 414.961 93 58 1
-9.09167 -6.01952 378.368 117 80 24
-4.53011 -20.1944 402.815 113 78 19
-25.8331 57.6689 415.372 114 84 25
-6.30666 50.9375 421.704 114 80 22
2.89744 8.43397 418.636 108 70 1
-11.3531 77.2447 418.415 107 80 20
-38.9854 78.3835 388.721 123 88 28
10.3948 79.2334 400.582 114 86 29
45.9008 43.4381 387.884 119 81 22
4.31656 32.3942 413.671 112 73 10
40.7601 50.2499 383.287 99 61 0
-18.1612 -10.4538 383.128 111 75 12
-0.387612 74.1987 374.939 114 74 15
-10.6922 -8.57789 417.726 90 63 16
-15.902 55.9366 403.458 113 81 21
31.7218 56.8784 413.321 110 78 13
-10.7537 -15.7369 386.826 106 76 17
-31.4172 17.6899 389.255 121 84 15
-24.9978 -15.9613 385.842 101 66 2
-10.6429 -11.2648 414.863 127 92 29
-15.0149 -3.87331 423.05 100 70 3
11.0525 13.6317 394.787 109 72 2
-30.5998 -13.7487 389.501 121 82 5
-13.3367 9.76258 422.364 101 71 7
11.8069 69.2746 372.434 115 79 18
-20.1914 22.2606 376.839 106 71 7
-16.9684 35.9172 423.385 116 83 27
-32.7775 42.3727 383.149 111 79 9
44.7894 49.0042 383.577 99 64 4
43.9592 50.6148 392.618 113 75 1
-3.15544 53.8614 411.608 105 73 1
45.9028 54.5201 384.326 106 68 3
-7.60386 -0.799185 424.183 115 77 13
-23.4241 65.221 425.978 107 75 19
-28.9189 28.7636 411.405 108 77 26
-16.3979 -12.7243 413.728 129 94 20
-15.1062 73.3759 390.82 103 74 10
42.1783 64.0188 392.976 134 93 35
-8.98046 -3.20969 423.859 133 96 34
6.20435 25.3218 411.969 108 70 2
9.54845 63.3496 374.267 107 70 8
6.92748 26.556 409.768 106 68 1
-14.8346 -17.7587 410.882 116 82 17
-3.25732 67.9586 389.049 80 49 1
-34.1345 29.7407 394.041 101 70 9
-25.8165 19.6389 412.947 105 72 7
27.1597 64.4378 372.624 109 75 9
-5.46593 34.9558 419.266 117 79 18
-12.3071 -0.836898 376.616 97 68 16
-33.7972 13.0106 400.789 107 74 18
-22.4783 5.35366 415.193 108 69 0
-26.0537 -3.25057 407.537 95 63 4
-32.3799 70.542 423.561 114 82 25
-26.0363 50.4522 378.826 106 71 15
23.5187 79.323 398.256 127 97 34
-16.5249 5.46558 421.809 129 92 9
-21.268 1.04254 379.705 107 73 6
31.7815 21.0341 384.977 95 65 4
5.88041 73.5363 420.433 125 92 40
33.2679 61.3292 377.583 93 61 1
22.6854 31.1898 394.956 115 77 18
34.9178 76.0033 389.973 115 83 27
-32.4307 18.7914 407.67 105 71 1
-6.08631 -9.174 418.317 82 56 11
3.15114 75.9956 373.195 103 70 10
-12.4571 61.3881 428.224 110 79 17
-5.44745 -11.6072 382.948 105 77 20
9.53776 -8.79271 391.994 124 83 11
2.21671 70.0396 374.245 122 86 7
33.0192 79.1856 391.357 119 91 35
11.8909 8.7554 390.458 107 72 8
-22.0859 -13.2367 408.519 109 77 12
11.6829 59.4218 372.433 97 61 0
-10.0351 30.9108 375.386 117 81 1
19.8721 65.5104 416.843 120 88 26
-16.1402 71.3182 383.938 101 68 8
35.732 69.4747 404.198 118 86 25
5.26047 60.6319 378.012 118 83 18
5.94621 12.3687 407.3 99 65 3
-3.66916 44.6075 419.66 112 79 17
4.57216 74.576 411.281 92 62 8
-3.56387 11.0397 376.069 106 69 1
-14.7164 21.9423 419.774 110 74 8
21.7531 16.3116 386.228 91 62 1
-14.4318 74.4968 412.343 111 85 20
-34.1084 2.44051 393.017 106 74 9
-16.958 -19.1291 393.238 109 74 6
36.552 55.4872 406.45 115 77 11
43.8027 35.8142 385.644 113 79 18
4.51012 33.5375 413.381 106 68 1
5.24799 35.2943 413.067 106 68 1
-1.56472 74.2882 388.84 84 56 8
-6.69958 60.3805 417.532 108 78 18
-13.9686 70.9496 427.602 116 88 19
14.9023 27.8754 404.995 103 67 2
19.6047 28.1049 386.39 87 57 2
35.351 62.5701 380.389 88 57 1
-34.4278 8.70646 389.401 118 84 23
35.7198 34.6506 396.255 113 73 2
-28.8845 -16.6191 401.715 107 75 14
42.2718 37.4865 382.913 93 59 0
23.4202 32.655 395.813 113 75 4
-7.85589 44.4044 422.94 113 81 16
-4.7364 1.26523 378.067 103 67 1
-4.30372 6.03431 377.072 107 69 1
9.65926 27.0629 408.25 105 68 1
-5.19988 -9.74465 380.89 112 75 17
21.3749 33.2701 384.746 103 69 7
0.163916 58.7204 408.219 92 66 15
20.7537 73.9145 417.249 119 89 29
11.6377 -13.0634 395.564 110 76 13
7.72406 -12.1197 383.918 106 68 1
12.0783 35.4365 409.631 111 73 8
-22.2717 45.7971 375.772 124 84 8
19.3844 73.1105 372.902 112 73 1
-8.79091 62.5727 408.561 121 86 26
20.3397 20.3331 386.773 95 67 6
-35.9848 27.1035 396.531 110 76 16
8.53861 14.1894 400.728 109 69 4
45.3101 43.8594 391.157 115 74 1
-33.1897 42.0257 401.709 110 78 13
31.0377 28.86 395.77 104 66 3
-13.8002 67.8512 391.383 101 70 11
-19.7372 -1.36082 420.636 120 84 12
17.1371 78.5795 403.647 121 91 38
6.05409 -2.29439 409.751 93 56 3
-15.3786 5.04603 423.163 106 71 8
22.4694 51.4038 414.261 101 70 3
1.65803 71.8379 374.639 115 79 18
-4.34855 66.3169 381.546 118 87 12
0.168831 69.1068 394.667 91 60 2
10.6079 -0.23883 392.366 111 75 10
9.05114 39.3902 412.256 110 69 1
-18.8692 19.1477 376.26 99 64 5
4.43687 73.8684 408.635 90 61 5
5.48614 25.1833 378.272 105 67 1
-11.4373 59.3612 395.307 127 90 27
37.1708 46.5639 383.184 104 66 1
-27.5018 70.3555 414.06 96 71 11
-17.3872 64.3106 428.278 110 79 15
8.5747 15.6313 400.969 105 70 2
-24.0788 17.2726 378.781 108 74 15
11.904 14.6021 392.635 107 74 5
-22.1846 -20.02 399.077 122 87 26
8.15592 12.859 399.863 106 70 2
-19.703 63.4085 378.906 121 86 16
5.68324 14.2458 407.943 113 73 3
-25.8538 57.6219 413.473 116 84 26
12.4826 58.386 412.399 125 90 29
-5.59337 44.2125 378.55 107 70 6
6.86265 12.2709 404.995 101 64 2
-32.9218 41.9347 398.093 104 73 13
23.8762 26.5 382.478 101 65 0
-26.4968 -4.15421 404.093 104 72 12
-1.97757 37.0036 416.489 116 76 14
44.336 60.0145 384.559 99 66 4
-7.06254 2.53844 423.761 126 87 27
3.99426 21.2963 414.979 112 74 1
-12.8446 7.77072 375.51 93 63 9
33.0308 75.0636 383.805 104 71 12
-25.4737 62.0459 416.587 119 87 31
-36.0117 77.1438 381.978 110 75 13
20.4022 21.6672 385.778 87 58 0
-26.468 80.671 386.822 83 59 8
-13.5851 8.03609 376.125 97 65 9
-17.6413 44.791 424.267 111 79 21
-37.0194 28.3012 399.048 103 71 1
-27.4119 70.3663 429.082 105 76 20
-15.2406 68.5413 409.85 107 77 22
15.698 79.4735 390.412 112 84 16
-31.1636 58.1534 389.134 115 83 23
33.0218 32.6309 397.3 107 71 5
-23.5825 -15.0109 407.211 102 71 16
27.1373 80.9992 383.854 122 92 24
-36.4427 22.792 401.328 100 66 3
-32.325 68.5388 385.777 102 69 14
-2.90102 66.9458 380.679 95 74 11
16.3819 62.4396 415.457 111 78 17
5.66447 12.2165 379.534 104 63 0
-22.6057 -2.54966 381.568 102 71 16
19.2482 26.1718 388.821 69 46 2
-31.6311 69.4181 422.497 100 71 13
47.5864 53.7523 390.82 116 74 1
4.18999 2.02313 419.572 97 65 6
36.8792 34.5178 380.916 79 46 0
26.7081 47.4109 411.529 104 73 7
-10.464 -19.281 391.628 108 74 4
-20.6798 -9.33951 412.691 112 81 9
22.7573 18.3285 393.659 114 79 14
28.4693 40.518 403.615 93 58 2
-3.70432 16.3716 418.549 104 71 0
-7.50463 63.1911 413.725 99 73 12
13.615 23.6802 387.058 78 50 9
3.13153 18.2116 378.425 111 70 1
-3.21381 64.1775 381.873 129 93 13
11.53 -13.1373 389.258 110 77 12
-30.8546 17.6522 408.283 103 69 0
45.9963 47.4123 385.304 105 70 8
-0.221853 -14.8607 412.779 115 78 7
-23.1801 20.9317 377.921 102 66 0
-32.0165 68.9532 384.566 111 78 18
11.0033 23.3915 405.998 107 70 1
-2.77272 -13.5216 412.829 128 88 17
-9.02424 47.1378 424.106 96 69 11
-7.64015 53.9634 387.006 102 69 5
-3.03657 19.6537 416.662 112 75 1
-3.86 36.1495 376.238 116 79 14
18.1402 67.2853 417.567 125 94 24
-0.841407 78.4389 387.892 96 65 12
11.1545 41.0343 373.788 95 59 0
-31.0742 5.8122 400.777 103 72 4
-1.85162 60.0651 384.489 123 88 11
30.3306 80.2341 392.965 134 100 41
19.3014 70.3262 371.793 116 81 9
37.2363 25.2503 385.998 97 64 0
-1.16873 24.2723 415.497 96 62 2
30.1956 58.8162 414.514 110 81 15
-12.2175 -13.2157 413.53 125 91 20
31.8706 54.0951 410.688 109 78 20
-18.572 75.1581 394.483 94 70 13
-20.6927 80.8297 387.9 119 87 32
34.8762 22.9283 385.823 97 65 1
-17.352 12.7922 420.323 100 72 14
9.15441 75.6853 419.996 124 97 33
0.686799 15.4999 416.913 115 76 1
-8.28129 61.76 422.287 120 86 28
28.4205 71.0654 376.118 102 68 8
-6.94481 21.5518 419.953 101 65 0
-20.0491 79.0236 382.062 106 71 11
5.81176 68.0434 419.997 118 82 15
-21.9768 26.7902 377.981 116 75 14
-24.13 9.91333 413.644 104 69 0
34.8792 72.1437 403.352 117 88 27
-30.5575 31.2478 410.14 112 81 26
-6.09646 0.503617 376.908 100 63 2
-33.1491 41.4945 398.227 105 73 11
-29.0816 -18.0093 400.01 124 84 6
23.7909 71.4525 414.694 137 103 48
1.24166 -4.09795 420.604 100 64 7
-22.784 21.1749 416.892 106 73 7
-14.4689 -10.0361 382.984 106 76 21
-12.6743 21.9538 420.371 120 81 21
12.0223 15.7585 394.321 111 73 3
34.0811 77.7166 393.405 121 89 36
0.134901 32.3681 415.601 105 69 1
36.2097 55.066 406.861 111 76 9
38.3957 62.7786 402.398 116 82 20
34.0457 75.1679 385.627 106 75 16
21.0453 17.6208 391.601 95 63 2
-17.4932 77.3795 414.205 122 94 41
-28.1833 -16.5066 391.06 120 83 17
-7.69064 57.7108 404.886 36 19 1
-32.2952 -4.85082 395.538 110 76 10
25.4898 67.8235 413.618 132 100 41
-6.50941 60.5549 415.532 108 74 16
3.58381 16.2384 379.183 99 62 1
42.9732 44.513 393.032 110 73 1
21.0572 20.651 385.014 101 66 11
7.33402 9.77705 404.031 110 71 1
10.94 23.668 406.23 106 70 1
-32.5153 70.6464 397.865 101 72 15
-28.5261 65.6766 396.152 114 79 24
38.6856 39.531 381.071 98 62 0
-2.22116 10.3125 420.277 115 80 6
-7.45676 54.5093 422.214 119 85 18
-35.0669 32.636 398.033 106 75 11
-26.3417 76.2181 427.438 132 100 44
-36.9296 26.919 401.151 105 72 0
-10.6872 64.5855 408.755 118 86 26
-11.225 30.2548 375.348 105 68 1
5.41465 -15.999 405.354 104 67 0
-11.5498 63.6863 427.702 117 82 14
-19.3411 61.2125 425.108 118 85 20
-20.0907 8.4012 377.093 98 61 0
-33.1797 40.1447 395.833 106 74 11
-34.0895 69.8727 388.745 106 77 20
0.402948 -16.2577 389.225 104 77 25
-7.1284 42.3092 422.338 114 76 2
-18.9943 24.3738 377.406 120 81 6
-28.8134 23.729 409.816 103 67 0
-14.1754 4.37899 423.52 107 72 10
26.6237 57.1345 371.832 111 72 3
-18.2195 -18.0808 408.461 109 75 8
7.92782 -9.53875 386.721 107 74 9
-21.3121 18.2238 377.387 102 63 1
11.6166 -16.6162 395.31 111 76 16
-16.6361 77.8035 389.415 111 81 28
11.7698 -12.6535 391.158 104 72 3
32.0824 32.9177 380.518 98 62 2
1.41172 17.9717 378.589 110 72 7
-8.14785 1.68488 423.147 132 92 24
-25.0914 47.5064 377.177 108 73 10
34.3373 40.7537 381.391 97 60 0
-21.8977 12.4538 414.597 109 77 16
-26.704 58.7396 396.754 101 70 10
-34.8108 4.03908 394.387 104 67 0
16.2321 59.4295 413.232 124 87 26
10.797 79.5446 397.619 117 84 28
-14.1834 21.5937 376.165 106 67 1
31.8765 19.5523 385.81 109 75 3
25.9086 57.579 372.016 105 70 1
-8.29963 59.3079 422.438 125 90 36
-4.23947 72.4706 378.494 108 78 14
-12.6688 -10.712 413.867 114 83 27
24.5175 26.7212 395.206 115 76 12
10.8936 26.797 408.388 107 69 1
-31.9395 34.7287 382.149 110 78 18
4.68613 71.4591 420.289 110 80 21
-38.8623 75.7924 385.8 104 72 13
35.695 58.3541 407.751 119 83 21
29.1528 37.0906 400.825 99 62 2
-9.86542 64.8064 424.35 119 88 36
-23.1788 2.59235 413.824 93 60 0
-7.48642 1.95765 376.057 111 73 7
33.4567 59.1154 409.867 115 80 17
36.8626 40.938 395.784 102 64 1
4.47088 78.6137 394.179 107 75 18
10.0417 6.30579 395.772 112 72 1
36.1154 69.3864 403.441 119 86 30
-5.58715 58.3528 407.896 108 76 14
26.0171 52.3836 412.033 100 70 4
-21.9474 79.1588 381.086 117 78 15
2.643 69.5491 408.783 84 56 8
6.06058 -1.48948 415.753 101 65 8
27.6555 38.0855 400.851 106 69 2
-27.5564 81.2081 383.177 121 88 30
3.77831 54.9252 375.344 104 67 5
10.4798 56.453 370.963 101 60 0
3.87505 64.0448 416.654 104 70 11
-38.7285 74.5524 391.659 108 72 10
-7.11044 60.8455 419.018 111 81 19
-9.3086 -13.9578 384.359 105 74 16
-31.5751 18.8801 408.205 103 70 0
-28.619 52.9298 381.519 112 76 10
-0.830419 55.355 409.083 102 71 10
35.4287 75.6022 393.639 120 88 32
-9.74781 -4.18838 377.637 116 79 5
26.0705 29.6155 382.038 96 61 0
5.90676 23.9975 379.007 106 69 1
9.72295 -6.19932 397.719 116 75 11
-22.0256 5.90433 416.974 114 75 15
25.8341 10.2149 389.335 97 59 1
-28.1368 -6.70654 399.563 113 79 16
40.8444 53.9758 385.065 88 50 3
-26.3654 -17.6559 390.651 122 80 17
-21.4972 6.29287 418.178 119 85 24
-26.9678 50.1605 400.24 114 81 25
-9.91917 -18.5686 411.365 115 81 18
-22.5618 2.39946 416.568 93 62 0
1.62007 67.1774 407.245 85 57 0
9.95885 -10.3257 389.546 105 67 0
-27.9918 79.8196 392.833 56 24 0
-0.373901 57.4168 383.698 119 86 17
-28.6336 11.5465 407.116 103 70 4
-19.1294 77.6788 417.223 124 92 33
-27.6034 17.2761 386.222 93 61 1
10.7446 -17.6638 394.023 115 78 15
-34.552 70.6459 386.767 100 69 9
1.43893 72.203 395.216 91 61 9
-5.58021 -18.6749 390.856 107 73 4
-9.41215 73.8847 421.113 103 77 19
25.7743 63.1084 414.111 115 83 17
-2.48611 -9.6431 413.538 126 90 30
25.8176 36.6283 379.922 90 56 2
32.0608 59.2398 413.057 103 75 7
-28.0713 40.7327 378.974 112 77 9
-24.9852 1.38025 411.893 97 65 1
5.2944 78.5894 395.881 111 79 17
23.0574 36.1275 399.986 106 71 8
5.87822 12.7554 406.938 103 67 6
-5.85382 -8.58252 423.782 88 57 5
-14.1199 53.0597 379.995 115 80 18
-24.2439 52.0725 420.041 112 80 16
-5.18759 0.663838 422.914 114 78 17
17.0316 73.0469 419.767 125 94 39
-32.5252 46.7903 395.474 114 82 27
-13.8057 -5.62179 423.049 96 64 1
6.87404 -0.861705 413.923 96 60 3
-19.4619 58.7351 423.757 116 82 24
-17.5085 55.2797 402.567 114 82 15
-15.4642 62.9802 382.196 109 73 6
-30.6192 81.3019 383.931 121 87 28
5.32013 55.7485 410.617 113 80 26
9.96793 6.58843 387.864 107 72 2
-10.1511 36.4406 423.025 109 76 11
8.82924 -10.8162 397.711 104 68 4
-1.13895 17.0108 416.853 108 74 10
-22.1907 76.7955 420.795 33 18 1
17.4594 33.4276 381.216 95 59 2
-28.7642 -13.1422 385.344 124 89 35
6.93117 68.2128 373.71 113 77 9
20.5581 37.27 381.748 99 67 9
35.6488 35.877 380.251 100 60 0
-36.0965 78.4348 382.497 110 78 19
7.01546 21.1431 380.793 99 62 1
-28.2417 70.3819 380.13 122 92 33
-21.0121 62.3455 409.711 93 68 9
-26.7519 -16.5835 387.297 123 79 2
26.0729 19.2646 383.305 102 68 11
9.66984 65.7334 372.803 104 68 6
43.7596 38.3655 390.892 108 70 0
7.90223 12.4891 400.741 104 68 7
3.81282 74.0735 415.5 90 62 12
-24.6385 25.3164 379.673 112 74 6
7.335 0.304633 385.606 108 70 5
15.3209 44.6073 415.631 124 85 22
-17.733 -9.97063 414.683 132 95 26
-31.2558 78.3993 397.668 99 72 14
31.6245 71.8377 379.682 100 67 9
-33.8598 41.1134 391.001 106 75 10
2.46801 28.0346 413.664 107 70 1
