ply
format ascii 1.0
comment Created by Open3D
element vertex 1415
property double x
property double y
property double z
property uchar red
property uchar green
property uchar blue
end_header
29.1884 42.5966 379.142 99 63 1
-9.06436 42.9764 377.051 104 68 2
6.03915 76.5734 406.077 94 65 6
8.14655 -0.894424 399.731 115 76 8
1.57882 -15.2334 385.987 99 70 12
13.9858 79.984 392.53 119 86 25
-14.9743 -5.61809 420.254 85 61 9
-25.6532 81.1789 386.072 122 91 32
-31.3403 -2.14163 398.485 104 69 0
-20.3325 78.4864 381.487 112 75 19
37.4534 43.9634 382.01 103 66 0
4.97731 39.8905 414.181 106 69 1
-33.0739 21.2992 390.623 115 83 22
9.45181 -1.74764 397.709 113 75 15
-21.6919 47.309 375.599 122 86 9
-28.8549 47.3055 404.293 114 82 26
37.9412 63.3786 403.265 116 84 22
7.32211 68.4798 373.232 113 75 1
0.446348 -15.6236 411.626 109 69 0
-34.494 31.0843 406.261 93 61 0
45.395 44.8723 385.132 101 69 5
6.27415 1.20377 415.674 112 73 6
-11.9034 22.351 375.292 114 79 11
-20.953 -6.4616 412.87 111 84 19
-27.9328 80.0582 394.227 124 93 34
-14.9489 0.858836 377.344 103 73 11
-2.17044 -10.5774 383.052 97 62 0
24.7473 48.3039 411.036 101 70 0
-28.268 -11.78 398.604 106 72 8
-11.5778 27.8577 421.042 119 86 23
-9.09197 58.1125 393.416 121 85 17
-17.1446 -16.8395 411.938 114 79 16
24.9832 42.2957 378.931 88 58 1
-27.3728 34.1944 414.046 120 84 26
35.3137 49.0751 383.961 108 68 0
-8.86689 68.9982 415.811 97 67 16
-33.436 71.5635 420.476 119 87 36
19.6885 68.2177 371.379 102 68 3
-39.5192 78.1313 384.691 109 78 9
-31.0582 51.7743 395.398 118 82 27
47.071 50.1475 386.686 118 85 26
-7.29894 2.01912 423.485 133 93 34
21.1587 62.4371 414.974 127 93 29
27.7624 17.2136 393.541 115 80 18
-21.4101 4.00295 379.905 110 75 3
-31.1862 28.3671 408.668 115 83 24
14.1104 22.7128 389.594 75 45 4
-19.3955 16.4382 417.471 102 71 13
-18.1649 -20.1522 398.846 113 79 20
38.1567 43.2155 381.887 90 53 0
36.8996 41.4282 381.13 95 58 0
8.62955 36.6714 412.062 109 70 1
33.6286 26.0508 382.901 99 66 7
-32.9529 41.5292 397.353 105 72 7
-9.17542 24.666 375.339 111 73 1
11.1511 -17.3372 394.346 106 71 3
-31.998 21.0692 390.058 125 87 25
-35.7228 81.2462 384.711 120 92 33
-4.36175 60.4118 393.252 103 71 0
8.35401 27.232 408.646 114 76 14
-15.2364 0.574164 377.679 104 70 8
-33.4428 14.234 390.812 114 79 16
-32.7228 74.6543 380.867 115 81 16
16.4734 78.7154 403.083 124 91 33
35.432 32.2282 395.766 105 66 2
18.8346 79.9337 377.348 119 88 26
-31.7364 66.6148 392.321 109 77 16
-33.9714 40.4229 391.294 107 76 15
-0.180863 63.5441 404.658 88 58 2
19.9749 52.798 415.104 97 68 2
-25.8277 58.0468 413.918 118 85 21
-27.8886 35.3882 413.405 121 86 23
40.8864 56.9807 391.432 100 67 3
27.9723 19.0951 383.613 115 78 17
4.17266 7.10417 408.78 103 66 6
-35.6073 12.8722 395.644 108 73 2
7.55536 -18.6693 396.767 109 71 3
6.70507 77.2608 406.691 101 70 14
45.5612 51.7615 392.408 120 84 14
-14.6775 48.3761 424.985 112 83 19
23.0802 62.1514 370.959 108 73 6
40.5839 59.7987 384.338 102 67 1
-27.2134 67.1047 413.948 105 76 18
18.6433 81.4887 381.494 138 106 44
-30.5074 54.0268 394.998 111 79 25
-12.9393 -7.91799 380.946 103 73 11
3.32218 7.60639 416.852 110 71 3
-0.485302 10.7038 377.329 102 64 1
-11.856 -17.6302 411.933 111 79 11
-31.5266 -6.78749 394.346 100 70 4
38.0893 42.5827 394.514 102 65 1
0.705991 75.2822 391.54 91 62 9
21.7008 80.8866 379.985 126 97 34
36.8234 53.6699 405.197 104 72 11
-20.5997 69.9455 411.297 93 71 7
-23.9753 -2.94479 412.329 98 65 4
23.6275 64.7075 372.131 106 70 7
45.445 41.4103 388.435 120 77 1
6.87973 -17.962 399.025 110 73 4
-35.461 80.7014 390.693 124 96 32
-29.5908 56.3534 395.258 114 78 22
-33.8448 43.1963 392.553 106 76 7
1.57312 11.6905 417.876 100 64 2
-25.6417 -9.44728 386.248 125 87 19
-23.9788 70.6356 412.58 91 70 1
7.74132 25.8461 408.389 117 84 21
-29.0033 11.3145 406.604 107 72 11
-27.6525 33.6457 413.146 111 81 26
-27.1234 -16.6529 388.074 126 89 13
14.059 21.8484 390.725 84 52 3
-31.7427 -12.1107 391.406 119 82 11
-21.4258 4.81799 379.336 97 61 2
-26.0704 25.0599 414.74 104 71 6
-17.0177 16.0598 418.887 116 78 14
21.1967 79.2273 399.587 130 100 41
-1.40907 48.2076 413.519 105 73 9
-4.29172 57.4065 407.329 110 77 11
-33.8959 21.3306 404.13 113 80 13
-28.8143 37.1032 378.903 115 83 20
-12.3942 -14.8031 385.422 115 80 22
33.0401 20.0872 387.466 102 68 6
14.1913 58.8054 371.31 103 68 3
-31.063 55.1538 393.093 102 72 3
-13.3021 66.7364 427.583 102 70 22
-3.38629 58.964 403.736 113 81 17
11.7118 -13.9956 389.456 107 75 13
-26.5938 54.3157 414.828 116 83 25
14.3883 39.0524 410.564 102 66 0
-16.3178 64.3049 395.846 99 69 3
-13.4912 70.8934 427.23 113 86 27
36.613 31.7936 381.546 94 60 0
13.2989 68.9676 419.883 123 90 30
23.0889 12.7476 387.362 82 52 0
-19.8886 27.2077 418.036 115 84 23
5.87678 -2.16894 413.621 99 64 6
-19.9764 -12.6738 385.825 113 76 15
1.69391 25.6643 415.042 97 60 1
37.1725 61.7914 405.504 120 86 27
36.7967 53.29 405.016 104 69 6
5.82257 -6.64123 386.151 115 78 6
27.6572 22.632 395.109 111 74 4
-21.3998 80.9256 387.066 120 91 33
-17.5107 13.3359 419.883 101 72 15
9.74068 0.763912 389.005 112 82 7
-33.0898 41.353 397.641 104 73 8
2.31383 -16.8942 405.589 102 69 11
33.5247 44.8975 402.626 96 59 2
13.4088 58.7509 371.369 101 64 1
-27.1235 32.7331 413.614 107 78 15
9.98222 -6.71449 392.771 123 82 9
8.67171 52.0774 412.703 103 71 12
-33.5968 44.6224 393.389 107 76 8
8.75643 19.8796 407.617 117 80 15
-10.2485 15.8769 420.709 101 67 4
-32.4634 71.6784 422.44 114 80 16
10.3396 -5.92103 396.005 119 78 5
44.6875 60.5469 392.714 123 87 32
-15.9416 22.6275 418.848 114 78 11
45.1923 42.8688 390.925 117 81 14
10.0237 17.6776 384.89 105 69 2
-19.7727 79.5568 383.005 107 77 20
-14.1424 21.1962 419.937 112 75 6
-29.4527 11.0627 387.783 120 84 24
23.8257 12.3696 386.163 97 63 1
-28.6643 68.3805 426.476 111 78 15
42.3145 56.2839 392.083 115 81 20
-27.9636 11.8324 386.677 112 78 14
-38.853 76.2191 384.188 109 73 6
34.574 28.8549 394.697 110 72 2
12.3176 21.4266 399.077 94 61 6
-30.0141 17.0059 409.099 105 69 1
-8.22722 25.9962 419.621 109 73 0
-21.1978 -15.5632 389.488 110 80 28
1.92724 40.4491 376.226 113 77 16
-2.35733 2.70177 421.597 117 80 14
24.4257 59.4247 413.522 125 90 28
5.37824 -1.70293 382.096 88 55 0
-32.3744 13.8503 390.317 120 84 12
-27.0295 21.2044 411.417 105 73 5
38.3926 27.0712 385.162 97 65 1
-16.8682 3.6872 377.436 93 61 0
-5.75915 63.548 385.991 99 74 3
-37.3815 21.1995 399.205 103 67 0
-24.3632 80.5038 392.203 128 92 39
8.0066 15.2297 382.481 103 69 5
26.314 47.3407 411.617 104 71 2
-24.2754 13.4924 411.803 115 79 19
11.8893 10.7607 393.012 115 74 3
22.9152 40.2172 410.74 96 59 1
-27.997 68.5307 414.193 99 74 23
1.67496 -1.73948 421.337 115 78 12
3.67077 72.4878 410.104 85 57 5
17.6049 43.9876 372.226 107 68 1
-0.928318 70.9193 391.081 86 55 2
-11.1255 2.40915 375.641 108 70 8
-27.6542 18.8962 384.833 89 60 0
17.6009 78.0179 412.182 130 99 41
9.9402 67.5551 372.387 108 74 7
-27.245 10.9512 384.522 104 70 4
-26.0733 76.617 425.33 128 99 39
-12.6122 25.0953 375.18 113 73 1
37.5459 70.1853 398.615 116 86 26
-11.5003 49.6976 425.12 100 72 16
-21.3649 1.46875 379.722 109 77 18
-9.87296 7.81397 422.425 104 72 11
-1.78111 3.42205 378.237 92 57 1
-33.5353 30.3866 406.922 91 59 0
17.2012 26.2794 394.618 97 61 3
-4.72532 19.4402 375.453 109 69 1
-28.6206 72.9283 429.134 112 83 19
-28.7354 79.3089 396.576 121 88 33
-13.3438 76.8211 424.728 130 100 42
9.01689 -7.16627 398.222 125 86 10
14.7251 24.0999 396.873 96 63 3
-38.2658 75.5704 383.869 108 77 15
-8.51474 55.8695 422.767 110 80 25
-18.2792 -17.9725 408.671 109 75 12
-15.3194 46.4052 424.892 117 84 26
-34.3398 70.6406 386.39 104 70 11
39.3113 45.9906 394.046 103 66 0
37.5209 57.2112 385.446 90 56 0
30.7878 21.0525 393.291 97 64 3
25.7277 78.9492 379.764 110 78 12
17.4028 42.2192 373.289 96 58 1
28.9484 48.3742 410.745 109 73 1
-27.232 32.8094 413.504 112 81 12
-15.3709 51.1861 377.201 116 75 3
-23.8102 51.1293 377.048 103 69 8
-13.5995 49.4478 424.899 103 74 13
40.3648 61.7973 396.712 114 80 16
22.9613 15.5218 392.534 108 71 2
-19.8062 65.3702 378.94 117 79 12
18.7028 28.6261 386.533 87 60 3
25.2458 34.5475 397.848 94 64 9
-15.4042 49.2527 376.435 116 75 2
-24.9979 44.3433 420.514 122 90 36
-0.176908 70.1619 392.932 89 58 1
-25.6969 24.7837 415.38 102 72 12
-2.12942 1.32388 422.401 110 75 12
-26.2626 23.5651 380.268 108 73 10
25.5828 75.3086 376.561 108 76 17
7.78695 1.58652 400.929 101 63 2
-5.84548 58.6947 392.235 103 69 6
-30.3117 80.0429 381.91 120 84 27
12.8319 80.8809 383.939 135 103 42
-12.2991 57.7867 404.041 117 85 24
-19.3527 77.4753 381.702 109 75 22
-5.75822 -4.08456 378.4 99 66 4
9.67997 -7.91921 396.416 113 75 8
-10.7333 74.451 415.101 107 77 16
-33.3217 3.44204 390.231 101 69 5
-1.84442 63.8587 395.226 97 63 4
4.27756 -13.9828 407.249 124 83 13
5.86751 75.0216 419.946 116 86 25
21.6085 62.3153 369.095 107 69 1
-8.50251 -18.679 390.488 105 73 3
11.3206 26.0576 381.18 98 60 1
-27.7395 -18.0042 401.322 120 86 12
-36.1676 21.9914 402.179 110 71 1
7.28742 -0.219283 409.181 93 57 2
-33.6735 9.10694 388.692 119 83 9
1.8282 72.5298 395.982 91 62 9
1.37238 -14.5572 385.399 100 70 15
-20.8052 28.0531 377.22 120 82 14
30.1994 33.9682 380.007 99 61 2
12.6633 22.7931 404.003 107 69 5
-32.9456 69.9274 420.18 115 81 17
2.72085 -2.38926 419.942 117 80 4
-20.8014 53.4762 403.45 118 83 27
-28.9208 -16.3251 392.602 118 81 16
6.55349 5.86811 403.953 120 79 3
34.0648 46.9081 383.026 107 69 4
-2.65133 -7.24087 417.487 79 53 19
34.5711 73.6971 384.81 105 75 12
23.3084 45.5074 412.846 105 73 11
-23.5083 -0.706965 381.239 104 70 4
-10.2683 -20.0679 393.388 101 70 4
0.38105 -17.1177 407.776 107 72 7
-13.0836 74.88 412.996 104 74 17
-37.1362 74.0083 394.479 115 82 14
-7.38259 0.984812 376.293 110 72 8
-3.14311 54.0682 384.649 106 70 0
-0.582566 69.0748 392.884 90 61 5
-33.9069 35.1055 405.35 109 75 11
-16.7396 -16.0598 413.183 118 82 21
21.8581 39.5251 410.267 96 60 1
-12.6389 57.0807 401.069 116 86 30
-0.434796 57.0452 408.12 96 66 5
9.18334 -9.42959 394.619 115 78 14
-30.7279 14.066 405.865 106 68 0
-20.3264 5.62967 378.348 94 61 0
-22.3907 38.3053 421.267 105 73 8
33.9038 44.2727 399.665 96 60 1
13.036 22.5143 398.428 104 70 1
-6.07003 -14.0557 384.661 98 64 3
-6.91744 58.4128 393.785 118 82 23
3.87352 4.86135 381.608 111 73 12
19.1231 37.5345 406.691 88 58 1
32.6441 49.4783 381.065 88 57 1
-7.49286 58.4014 398.941 120 88 31
-12.6394 -16.1697 387.061 109 76 14
4.1477 74.2978 401.726 93 64 7
-25.7924 55.3095 416.841 115 81 23
11.1771 16.3015 395.935 98 63 2
-2.12578 -7.12471 415.976 102 72 17
10.87 13.5339 395.021 110 71 3
-4.24629 -0.484396 378.626 102 64 4
-32.6053 70.8736 421.779 118 85 18
16.8979 41.9123 414.033 112 75 10
9.28585 18.8015 406.235 105 69 1
21.0868 70.9303 418.532 137 102 37
-28.0066 43.0095 415.658 124 92 34
3.23815 -0.846665 420.782 114 81 16
-22.2807 64.7863 426.505 123 93 31
21.436 79.4124 398.487 122 92 34
-1.85695 70.092 377.03 118 82 16
-7.60853 29.7317 376.345 110 74 7
21.3414 79.609 394.436 3 3 5
-13.0157 64.5582 391.306 95 65 8
32.1685 69.9738 408.898 125 94 33
9.96165 10.6278 396.984 117 77 9
39.8338 49.1785 393.459 119 79 7
-26.0547 9.16148 381.084 106 67 8
-2.25525 -6.83053 380.998 101 68 8
-18.0305 79.6875 389.634 119 87 33
37.2565 28.1276 393.043 93 58 1
10.8374 66.7531 372.131 117 81 15
31.0553 53.7844 375.672 92 57 1
-0.823068 60.4004 405.808 88 57 0
-21.8282 61.868 397.427 84 58 0
-4.66206 -10.8092 414.197 107 78 25
45.7977 50.2787 384.164 102 67 1
-30.8957 67.8728 420.091 116 81 13
-2.11242 62.4426 397.323 100 68 0
9.01907 18.6085 382.246 109 72 13
-33.2848 73.1301 419.204 108 78 21
-2.31094 -3.56341 422.485 131 91 30
-12.5565 37.1676 376.263 99 63 2
30.5786 47.2775 379.72 86 57 1
5.3244 67.6655 419.663 120 82 10
16.0103 66.8671 418.306 110 74 6
2.66043 7.14255 417.258 107 68 2
-28.642 33.8814 412.113 110 82 25
-15.7723 -7.97619 414.446 124 90 24
-24.8491 -16.8158 387.618 106 67 2
14.7938 51.0438 370.198 112 77 8
27.3887 43.6946 410.855 106 67 3
19.5784 79.1749 398.672 67 29 3
-24.8383 53.7731 379.184 108 72 11
14.0108 62.1451 415.425 115 82 19
-24.3046 23.6406 416.649 104 73 12
1.9443 -3.52059 419.929 100 65 8
4.52158 12.2919 410.022 101 64 5
0.528457 -8.57742 383.25 106 71 10
24.2228 78.9456 392.185 96 74 17
24.3208 45.4475 374.04 93 59 1
-21.7762 -6.30267 382.8 103 73 10
36.4265 54.1144 406.247 108 70 3
-13.6463 60.2714 396.235 110 77 15
9.28999 33.9308 376.868 116 77 12
-8.27531 60.4468 407.11 123 88 26
28.0157 66.6529 373.806 107 71 4
-10.0864 58.0275 391.307 107 74 11
-22.1929 76.5754 426.287 130 104 46
42.6488 63.5412 385.435 117 79 13
0.180285 57.0542 408.593 95 67 6
7.36285 31.9648 411.834 111 77 23
-37.8 73.1681 392.431 105 76 20
-23.0444 68.6695 378.713 108 74 13
40.6906 50.4528 392.887 109 69 0
-33.7772 31.8887 393.83 112 81 26
10.4198 18.8033 404.601 110 75 17
8.69602 -18.6443 395.17 110 75 18
-29.3149 12.6935 406.156 111 78 14
-21.6245 76.6447 425.839 135 103 48
7.56907 17.1576 380.75 99 62 0
-1.73215 71.8325 376.185 108 74 13
-7.06287 31.0848 419.969 116 78 14
-24.6393 18.6516 379.347 109 76 15
43.5236 63.0401 391.803 136 99 32
-4.14414 79.5882 383.921 104 71 10
7.58166 18.2262 407.695 115 77 10
19.3704 31.3549 385.017 80 51 3
-34.5439 13.9038 400.607 107 79 27
-11.6047 27.5257 420.956 121 84 30
-33.5454 36.7377 393.452 103 70 2
4.51053 36.7033 376.071 107 77 7
2.83528 -1.22252 380.319 108 68 1
-26.57 69.292 429.294 118 86 18
27.2589 80.2285 393.006 131 98 31
28.2574 78.8669 401.551 130 96 42
-7.72886 -18.4967 390.463 108 76 21
-4.67306 41.9495 420.669 113 77 16
-0.761098 46.2639 414.192 92 61 0
-25.6811 62.7916 416.862 108 78 16
36.9592 47.7282 395.282 105 69 8
6.99477 55.1828 372.363 108 70 5
0.302655 5.41797 421.549 118 84 4
-26.6944 74.2198 430.816 129 98 28
-25.2701 8.54969 380.357 107 69 0
21.5997 50.3719 373.379 99 60 1
30.3197 76.8593 405.007 122 93 33
-24.8794 62.6045 397.091 91 64 6
4.42216 13.4206 409.473 108 71 1
5.69481 8.45972 405.594 109 69 7
-23.8373 8.43772 414.827 113 75 18
-8.39756 -16.7252 414.61 113 79 20
47.6133 53.2348 390.613 114 75 7
-10.544 61.7136 425.886 121 86 28
-35.94 7.36346 393.009 107 76 14
28.1756 68.9174 412.203 131 100 44
-15.5415 4.52732 377.374 101 69 0
6.53305 9.80173 380.845 107 68 0
34.0299 77.2369 389.532 114 83 27
26.1603 73.1286 412.447 125 98 44
25.8012 71.5699 374.57 105 72 9
0.8396 21.6584 376.021 105 67 1
-16.702 -15.3132 413.714 127 92 20
-37.7971 74.6247 385.65 97 67 12
-6.90574 7.74719 421.921 110 75 11
4.22889 -5.33673 384.398 92 63 11
12.3379 77.3502 417.949 142 109 42
0.220578 38.4769 376.525 113 75 4
25.5231 22.5647 395.009 114 78 4
-34.1907 39.3418 391.296 111 75 14
-10.6267 72.6895 413.697 112 80 20
-26.9543 -1.58704 386.74 98 69 18
-11.3627 58.1071 397.19 123 91 33
-26.6179 71.4036 413.809 94 69 0
-0.259201 -6.27754 421.01 92 57 6
2.40051 6.42676 379.318 86 56 4
-14.7391 29.2849 376.765 105 71 5
-21.274 -2.81728 380.195 110 78 12
4.87927 73.5178 372.757 115 79 0
-0.482091 72.7902 390.975 86 57 4
9.92207 0.231568 389.159 108 79 6
-26.249 47.8489 418.532 111 80 21
22.4357 78.3756 404.968 128 95 41
14.9554 50.3842 415.859 111 78 12
17.8891 46.468 415.85 113 76 13
-21.8493 49.2899 375.684 124 88 8
34.2718 28.1799 381.924 93 59 1
-31.0227 -1.63058 388.822 126 92 17
13.2959 62.706 372.342 82 47 0
-6.53014 -2.19133 424.146 116 82 5
-33.6128 81.3015 384.98 122 89 34
29.796 42.0222 404.647 93 58 2
-17.0408 55.541 402.379 115 81 17
-24.7661 80.3835 389.367 61 37 0
-7.51064 62.9528 412.987 100 71 12
32.1914 36.2836 399.587 112 72 3
25.9922 68.8937 413.017 126 96 42
-15.7415 31.1962 422.155 119 83 27
-28.4021 11.5117 407.556 104 70 10
14.2343 53.7423 414.522 107 76 12
19.3817 23.4318 388.301 73 46 1
-15.6787 19.6626 418.56 120 84 18
-38.8792 75.4438 392.505 112 80 3
25.3897 69.2405 373.297 107 72 2
9.74648 24.9532 407.555 109 71 2
25.1111 48.6174 410.844 103 71 0
28.7007 80.2103 383.771 120 87 14
-30.7888 54.5202 394.214 110 78 23
-5.73685 58.4641 391.562 96 63 0
-27.4315 65.6566 415.079 114 82 19
4.93756 -3.10276 383.086 84 58 15
-26.2909 67.5339 427.446 115 83 23
-35.0033 5.52394 394.597 99 68 4
7.32332 1.19694 412.283 92 54 2
-0.114227 36.0166 415.687 108 73 4
-2.09933 50.2983 413.084 112 77 12
-1.01505 67.1479 377.699 113 78 9
-12.5759 1.48065 424.144 104 71 10
44.6135 50.7914 383.43 99 62 0
-26.3754 67.3353 378.806 118 83 33
7.8302 -1.74837 386.246 110 75 6
-20.7089 -4.07518 415.499 95 64 2
-29.6172 79.0389 381.482 118 80 28
-20.1725 54.6759 400.963 119 85 28
-28.1768 73.1311 398.196 71 47 1
-30.446 -1.8297 400.064 114 79 17
9.11481 -8.7105 394.623 126 88 20
-26.4963 59.4462 396.767 102 70 7
-25.9715 65.7726 378.739 114 82 19
-2.22183 -19.0829 405.213 114 77 15
-1.69114 -13.6888 413.222 136 93 31
-19.3258 2.82215 421.257 109 76 5
-31.6549 52.5302 386.433 115 83 22
29.5148 21.5034 383.49 69 43 0
16.6288 33.6149 405.047 110 76 10
12.9379 54.9871 370.007 108 71 1
-9.99895 13.2965 374.677 114 76 19
3.44933 5.71184 413.034 95 60 2
-10.7027 57.2416 388.377 95 64 4
-9.22723 34.5896 376.263 117 80 11
-6.93959 71.6893 381.082 104 76 1
-35.7746 8.86939 397.142 107 71 1
7.42677 13.8902 382.599 108 71 0
6.09485 14.2152 406.66 114 76 13
2.41017 55.6108 410.195 105 74 10
-38.7845 76.4362 391.643 100 69 6
-31.7651 55.0874 389.992 112 81 20
3.64759 -1.88377 419.843 99 66 8
29.8562 67.9987 411.378 132 101 41
5.50166 81.7123 378.874 138 105 51
-10.8144 13.8292 374.842 102 65 2
-25.8584 0.983785 410.499 96 63 0
-23.0712 -17.1457 389.741 102 71 27
-14.1346 21.2275 376.139 103 64 1
5.44798 2.5706 417.121 106 70 13
4.46582 5.41339 381.743 92 54 2
-17.6946 78.2889 392.181 113 84 29
5.13485 29.1123 412.343 111 79 13
30.6307 10.552 386.606 119 80 1
11.6767 74.6211 373.453 114 79 12
25.2083 32.166 395.816 108 73 4
24.0539 80.5429 380.685 123 91 27
6.21879 19.1963 408.812 117 77 5
17.9197 78.278 404.805 123 95 38
-30.867 80.5717 382.336 134 97 39
-13.7298 11.8436 421.222 109 77 2
-24.5272 70.4601 412.734 90 67 3
1.89415 77.6481 391.498 101 69 12
35.0158 24.0103 392.237 115 77 2
-22.673 2.69428 415.141 92 62 0
-13.1376 25.061 420.896 116 81 18
21.9624 78.4641 377.065 118 84 30
-28.2603 52.9345 381.199 115 79 13
23.7861 81.1182 385.557 132 100 37
45.0567 54.4202 383.868 94 59 0
35.8189 41.3441 381.399 90 53 0
-29.0465 42.9209 380.149 104 70 5
35.0554 64.9042 407.738 128 95 35
-11.0834 58.7457 395.838 130 95 37
8.13535 75.3938 419.665 111 80 26
-34.3754 4.71503 392.218 107 76 20
35.3156 47.0803 401.031 99 60 1
6.20439 62.8088 376.204 110 71 7
10.9404 49.4369 414.87 115 82 9
-9.8663 65.5069 409.819 119 85 13
23.3879 80.7466 388.082 127 102 42
38.2041 39.1458 380.929 103 63 0
-10.1379 70.7357 413.104 102 74 18
-26.7867 8.32749 385.461 111 76 6
1.79781 67.4565 407.792 84 55 0
41.7543 63.2847 394.302 116 82 22
-26.7264 -1.5057 409.095 99 67 0
1.20115 73.4215 393.609 91 60 12
-23.9753 61.1195 420.739 126 93 30
7.05828 -0.845996 409.629 95 61 2
0.0401832 77.5911 374.4 120 84 14
-18.6853 58.9823 424.364 119 89 27
0.412013 65.9716 400.378 93 64 4
-25.3481 51.2312 401.755 109 81 9
6.62617 41.6981 413.446 103 67 2
6.71454 78.8718 397.691 120 85 24
-22.4662 73.0194 412.766 95 72 7
11.7681 43.1387 414.169 119 79 3
-24.4516 2.73689 409.732 97 60 0
0.831037 81.0636 377.578 128 94 31
13.7166 79.183 400.628 116 89 33
23.9063 35.927 381.682 79 51 2
-8.58341 34.0882 421.702 119 80 21
-25.3723 7.7349 380.859 92 59 4
30.2135 40.5382 378.796 100 65 1
4.09703 36.5862 376.121 115 75 1
-22.1875 -7.66463 411.161 118 86 28
1.65676 37.7623 376.295 114 75 2
9.54723 56.2629 411.108 122 87 25
9.85375 -11.0501 387.86 110 73 6
-26.0929 -13.7832 405.83 114 83 9
-18.756 17.2987 417.781 112 79 5
21.6752 52.6704 373.556 111 74 7
-21.1368 54.2113 377.058 117 78 13
36.9413 69.8245 400.952 117 84 26
-31.6977 17.6566 407.758 100 65 4
6.16669 6.08204 383.419 98 59 0
17.8916 81.5174 380.397 137 106 46
-0.925629 66.9657 377.824 114 77 7
-9.45806 60.048 406.328 124 90 33
22.6957 18.984 393.787 118 81 12
-1.12381 75.51 375.32 110 76 11
32.8895 27.5868 394.747 110 72 3
-27.8319 47.7375 379.427 110 78 16
-25.2863 50.296 377.819 99 60 9
-28.285 20.0965 385.388 101 65 10
35.1704 65.583 407.373 129 96 32
14.3013 77.1134 418.197 135 102 41
-30.9913 59.4171 391.538 104 76 21
24.9448 23.5421 395.485 119 84 14
-4.28422 27.4652 376.19 112 76 4
7.82845 59.2156 413.358 115 81 9
-35.428 9.78426 392.428 117 82 15
-1.97109 2.76987 421.439 123 85 15
-22.7737 75.9044 414.039 107 79 15
-32.5728 4.69715 397.948 109 73 15
-14.1442 73.1321 411.776 112 82 22
-0.229646 27.7415 414.937 114 76 12
9.71708 4.01479 388.034 93 61 12
-25.2614 -15.7311 405.315 114 81 12
-16.658 72.0486 429.403 109 80 26
5.26088 3.0809 416.928 94 55 3
-33.8866 36.3907 392.331 106 68 0
6.35162 0.878353 415.508 107 70 7
-1.75546 50.5912 412.403 104 73 10
32.7274 56.5311 377.357 88 56 1
-0.0871987 -12.4679 385.04 119 83 18
-30.4687 -11.7855 395.567 106 75 2
-26.8304 51.8012 412.184 121 86 24
-25.6831 41.6139 376.924 117 79 19
-32.1706 26.7307 407.404 99 64 1
15.2073 76.7254 418.422 128 99 36
-37.2938 78.3585 382.503 115 83 22
-14.8381 44.8953 376.029 118 80 10
2.45637 70.347 401.836 89 61 3
8.88994 43.3479 372.77 106 66 0
-10.818 8.038 374.621 102 63 3
-20.1963 64.6234 427.742 113 83 20
-3.18299 60.1337 385.356 112 76 5
-3.42485 17.4208 375.249 112 70 1
19.4681 69.8452 419.209 120 89 27
30.9853 58.7978 413.921 110 78 19
-20.7671 -11.1746 410.548 115 81 15
-24.7641 56.9583 379.211 118 81 24
32.0482 54.4201 410.682 112 79 14
-4.17002 33.9024 417.693 113 76 14
-10.1042 48.8003 380.874 115 79 14
31.1053 79.0934 398.7 126 94 34
-16.7982 4.67117 377.408 90 58 0
-22.6089 12.945 413.56 111 80 16
20.5353 80.6215 388.708 127 94 33
30.0937 67.2586 375.615 102 68 4
9.79716 39.563 375.457 93 59 0
-12.6614 16.3002 375.238 104 68 3
-30.7111 67.3012 383.537 108 78 20
-23.3357 5.37929 413.804 106 69 0
-1.41747 34.926 375.973 114 75 2
8.31348 12.7523 384.123 109 71 0
-8.22688 58.2345 397.716 121 87 33
-34.7319 20.0978 392.337 116 83 20
25.3757 30.4565 395.76 113 74 5
7.97611 15.5148 404.561 109 70 5
-20.8019 50.1701 423.108 115 84 16
-19.3014 43.0086 376.203 122 86 19
38.0635 70.9714 391.438 118 86 27
-6.66354 69.3815 381.885 97 72 0
30.3387 46.4843 410.089 113 80 27
9.72934 33.5209 410.215 103 67 1
-28.0311 -9.64839 397.838 121 86 18
3.01035 40.1832 376.152 111 73 3
-11.4271 3.61491 423.594 135 93 32
9.96934 14.4684 397.669 117 79 17
-13.7161 -5.7051 423.059 97 64 1
-2.89616 39.0891 418.351 102 65 1
-21.5773 80.2923 382.135 110 77 13
9.01787 -11.6424 400.925 96 59 3
-21.9412 -19.493 402.137 124 87 26
4.49577 9.4246 378.966 106 68 0
-25.0038 9.62611 379.535 99 63 3
40.9057 44.1967 382.041 103 64 0
25.8702 65.2057 372.354 115 80 20
-18.0809 74.7617 412.373 109 78 22
-8.80902 6.81619 422.761 102 70 12
6.34626 -1.29342 382.802 100 64 3
-4.038 31.6867 417.169 112 74 13
-31.1796 41.5785 381.258 114 78 0
-18.507 -1.90548 422.104 113 82 21
-20.9356 -1.59819 418.896 112 79 18
-11.9342 -20.371 405.805 120 83 9
-8.00414 -9.67097 416.942 123 89 20
-28.474 73.9904 429.061 118 87 20
27.5681 60.0076 372.097 114 77 16
27.5167 62.7168 413.112 106 75 18
-32.2116 69.8611 397.008 97 70 19
-16.7856 62.6071 428.322 116 86 31
1.43357 5.6585 421.148 95 63 11
22.8446 66.4348 416.278 130 97 29
14.3262 78.1443 409.387 120 90 33
-10.6022 10.2352 421.936 103 66 0
-26.7419 8.0485 385.515 111 77 6
-7.49899 53.0731 385.878 101 66 4
-23.9606 69.0321 430.71 116 83 31
5.86441 -1.9525 382.784 96 59 0
-25.1496 -19.5381 395.325 107 70 4
-4.84369 62.4569 384.284 118 84 0
37.2271 61.5145 405.468 119 86 28
-31.3365 43.4244 381.982 112 79 11
-32.175 2.32155 389.515 122 84 19
-4.79461 40.1637 420.624 109 74 5
40.001 66.7292 387.075 122 85 22
45.6986 61.0248 387.885 128 93 27
8.5296 72.7776 420.489 112 82 17
20.1225 80.5436 388.918 125 96 29
39.2272 38.2002 395.137 107 69 1
-15.6468 73.462 392.403 105 74 14
32.6614 33.1129 397.638 115 80 10
-8.12079 40.3875 376.368 110 66 1
-10.0295 55.8715 423.814 110 79 16
-9.35188 -11.94 382.784 106 72 16
31.8012 79.8266 388.048 118 83 24
6.4086 0.640413 415.654 99 61 4
-5.57465 71.582 385.094 72 45 11
24.2804 36.154 381.264 90 55 2
-14.8458 75.7335 412.895 113 86 35
32.8107 78.6384 388.466 117 86 25
-3.80502 -4.04376 378.989 105 68 2
3.40311 54.9627 375.899 104 68 5
-5.76802 31.7247 376.154 111 76 8
-15.154 72.4874 388.132 99 67 3
29.2044 71.3236 410.957 129 95 42
26.3125 9.84852 389.136 100 64 1
8.13663 78.1167 407.438 114 80 23
-0.534704 7.52388 421.388 105 72 21
-34.8871 27.4718 406.277 97 61 0
10.8903 16.3554 386.694 102 68 8
-13.5058 -6.53309 420.813 78 58 14
-27.7782 73.0246 398.108 72 49 0
5.23349 0.079422 419.131 100 70 8
-11.3165 66.9085 425.818 122 87 36
4.4507 -8.20772 385.143 108 72 6
7.63025 38.5723 412.382 104 68 5
7.01784 1.1725 413.959 107 71 8
47.5308 56.5892 389.813 124 86 20
12.8765 68.0137 371.258 91 57 0
9.91443 31.202 377.718 105 68 1
14.934 81.0446 382.876 135 102 39
-15.9554 26.2646 420.516 119 83 16
-2.70987 -7.36598 418.726 75 55 25
-13.8997 64.4646 428.771 89 63 11
2.09068 -5.36871 381.999 86 63 21
0.0477383 7.99434 421.006 114 77 11
-26.6576 -7.20832 401.523 122 86 25
-21.4992 -9.85756 385.565 109 76 15
1.454 24.3905 376.395 105 68 1
18.8555 40.4858 412.534 110 73 10
-35.202 81.2471 384.427 122 93 34
-23.5941 51.1083 405.722 112 78 17
-7.04531 58.495 396.543 123 88 28
4.86758 55.533 374.412 105 70 6
0.0593288 30.2743 375.855 116 76 3
-26.098 -17.8269 402.53 125 84 3
25.6919 68.7402 413.176 131 98 43
26.6841 47.7869 374.138 91 58 1
-2.62825 -9.60889 381.995 101 64 7
24.0858 66.7139 415.183 131 100 44
-5.67537 74.5931 384.26 72 45 1
-24.8462 51.0722 377.798 95 55 7
32.2546 19.8282 389.916 102 70 4
-34.6532 36.6958 402.924 108 77 8
-21.5285 71.6325 431.021 124 90 40
8.93853 28.7375 378.247 105 70 1
-14.388 73.4098 411.843 110 82 22
7.05142 64.4317 375.063 102 70 15
2.00792 30.6298 376.029 109 68 1
-31.1388 75.3458 424.241 122 90 28
23.1841 59.0065 412.407 125 92 23
46.1504 59.2104 385.695 111 76 2
-5.58573 -15.1761 386.184 98 67 10
5.23485 -6.97449 407.751 125 87 24
24.3519 15.9184 392.828 116 80 11
-23.0354 1.8123 416.666 101 68 3
-36.6795 73.067 386.437 111 79 21
3.66739 15.9785 379.313 105 68 1
6.89732 9.17523 404.464 112 74 3
35.1459 44.0918 382.177 94 56 0
-14.0978 68.7576 391.792 103 70 9
-17.7247 -14.2787 387.099 101 75 25
-20.6104 31.2133 376.327 117 80 5
-5.72489 71.4291 379.53 115 82 8
5.54519 -6.53033 407.421 119 79 11
0.356899 21.2287 416.388 107 70 1
-15.5418 75.8728 412.881 115 86 34
-2.12276 51.3901 412.264 108 77 9
19.5975 45.5514 371.986 112 72 1
-8.28119 17.2922 374.972 112 72 1
-21.3653 62.3431 378.201 125 87 15
-17.5679 -8.2466 414.796 129 91 27
18.9905 78.0736 406.214 125 93 39
-18.8225 80.1343 386.485 117 87 33
8.63236 -0.0827667 398.798 123 82 12
-5.54158 22.4675 418.317 112 73 1
15.078 23.9498 394.589 93 59 2
-3.49074 8.59136 421.138 110 77 11
-33.7491 19.6359 403.691 115 79 12
11.109 13.0042 388.971 107 71 3
-0.625192 -15.008 412.833 115 78 8
-12.772 0.670819 376.25 110 77 12
-24.9741 36.1816 419.365 118 89 28
-21.2895 -10.9735 386.096 110 77 14
23.9974 35.9915 381.555 83 53 3
-12.9247 35.716 376.842 122 83 22
31.1137 37.1596 379.044 107 68 6
6.49564 -7.65642 403.164 106 68 2
18.7997 78.0908 408.419 129 96 40
-16.4753 -3.89102 421.703 90 66 12
1.4884 67.7259 377.033 108 74 6
4.66055 77.1883 372.605 124 87 24
9.7796 -11.1795 396.421 106 71 2
42.1642 58.0065 393.131 116 80 5
37.4439 37.0922 396.165 111 72 1
-27.5678 66.7284 379.794 115 82 25
-2.95386 6.04474 377.091 103 63 1
24.8892 10.5896 388.355 86 52 1
37.1085 56.966 384.926 90 55 0
-30.7951 -11.6473 387.87 117 87 29
-29.0528 44.3543 379.925 111 79 12
6.58533 67.3037 374.387 118 80 2
-5.01665 -8.98386 416.472 86 61 20
3.17678 -0.0972521 379.733 101 63 2
-6.17106 58.7314 402.13 122 89 31
-25.4062 59.6828 397.18 96 66 7
-3.58914 62.7327 382.598 119 84 3
-12.1723 76.453 414.784 121 91 30
34.5659 59.8059 408.447 121 84 25
-8.54889 11.5358 421.741 113 77 2
-25.8757 -10.2006 385.715 128 88 16
29.1609 67.6258 411.795 131 97 39
-15.2707 18.6136 375.618 114 77 1
-8.4613 64.9922 421.874 119 86 27
-24.9929 3.29478 381.321 108 72 3
11.552 19.4261 398.409 102 64 3
1.97079 69.6201 400.553 90 61 1
41.9868 63.9334 393.419 127 89 29
3.84024 -2.85446 380.872 108 79 23
-3.38924 78.7781 377.076 122 90 24
-25.752 54.5418 411.442 115 83 24
-7.87578 -8.6676 421.965 78 49 3
-5.79867 45.1889 378.972 103 70 8
22.9807 51.7015 372.728 95 58 1
-27.6842 -17.9405 394.452 117 79 16
9.69607 -15.798 386.992 110 72 2
-14.9864 -8.63044 382.262 109 78 20
9.35492 14.9085 398.316 118 79 1
-30.6625 69.1128 424.909 104 74 16
15.6133 50.5011 370.476 110 72 6
-19.1259 -4.70723 380.342 107 74 10
10.0378 79.478 398.1 118 86 37
-6.65076 40.0469 376.521 110 71 4
10.4635 -4.47851 391.079 106 70 0
21.5187 81.447 382.048 135 105 43
-20.6063 64.5482 427.493 107 79 21
6.75332 1.34681 414.75 112 78 19
6.35194 8.94654 380.628 105 68 2
-35.0672 5.61128 394.478 97 66 8
-30.8709 -13.5322 397.291 109 75 11
-34.1939 69.987 389.394 101 75 17
25.4414 29.4913 381.945 100 65 1
36.4182 38.3006 396.171 110 73 4
21.229 60.4516 413.352 111 79 13
-23.3405 11.3883 413.373 101 71 1
-29.8597 4.64561 388.671 126 88 17
42.9442 49.6273 382.953 101 64 0
-32.8157 34.9584 407.259 108 75 11
0.797005 44.7673 377.627 106 74 4
-18.6069 12.189 376.219 102 66 0
-35.0172 33.7278 399.729 107 77 19
31.7848 28.2642 395.716 106 72 3
-3.9374 76.507 385.679 81 52 13
21.7576 72.4975 416.158 127 95 37
-26.9879 23.6838 412.556 108 73 6
1.14294 65.3968 409.37 86 54 0
-28.0904 -17.0022 401.829 120 82 12
32.6755 67.3073 378.21 97 64 2
6.20614 76.7718 405.872 98 66 5
35.9519 60.6146 381.498 88 57 1
23.1969 62.3461 414.584 121 87 28
-4.57173 -19.8771 404.545 113 78 10
-14.7443 -14.1888 413.902 127 91 18
-34.3025 45.0326 390.865 111 77 17
-20.5648 32.3797 376.081 117 78 13
-29.3658 29.5677 381.944 106 72 7
8.47116 -1.33709 399.567 115 77 3
-21.8326 8.41255 377.489 109 76 24
4.44955 78.0602 395.139 106 75 18
-1.97178 22.928 415.757 99 66 1
3.04887 32.4803 376.115 118 78 10
18.9663 79.1444 400.19 124 93 29
35.2007 74.1805 399.982 117 84 26
-24.9026 2.47098 409.63 91 58 0
-9.09313 -5.58307 378.18 119 85 27
-2.67926 64.7302 391.86 88 57 3
-6.51346 -6.31255 425.5 113 82 18
0.82393 5.23584 421.498 113 77 0
6.03005 30.5739 412.361 113 73 1
16.9624 77.4561 416.146 136 104 47
12.2197 37.3817 377.311 115 77 10
19.915 81.4796 381.085 141 107 46
23.1819 60.5989 413.76 122 84 22
21.0674 49.0205 414.87 99 63 4
-24.2536 1.09323 414.711 101 68 0
-33.5994 -0.800575 393.492 97 67 5
-36.1878 73.4372 397.968 112 80 11
-9.35459 21.4816 420.766 117 79 8
-27.1365 76.6435 416.154 101 76 17
3.14065 17.3847 378.397 112 76 7
-29.3675 75.0857 380.313 117 79 10
36.8945 26.5018 384.073 96 63 0
-30.6507 -14.3009 398.611 112 81 9
45.5219 60.5666 385.805 121 86 15
-27.0917 68.3032 427.704 103 73 20
8.92156 29.816 410.086 117 82 22
-2.96719 60.3072 384.804 120 84 8
-4.54466 -8.31069 418.42 84 61 18
35.8201 74.2104 389.089 113 80 12
23.3377 80.2752 379.747 119 86 24
-1.10828 43.1255 415.207 113 79 13
19.4832 51.7187 372.003 103 65 1
-30.3566 46.4929 381.718 110 75 9
39.5535 68.0333 389.59 120 86 33
2.83124 68.4696 374.513 113 76 9
-28.5106 15.8184 387.192 118 84 2
-26.6096 40.891 377.423 113 81 18
37.1853 53.6592 386.533 94 60 0
7.03755 12.2863 404.317 103 64 3
-32.5124 23.464 407.077 102 69 0
-23.351 40.2973 375.973 122 84 17
40.0257 59.4246 396.741 108 74 11
13.6724 28.6386 407.052 111 76 6
29.2372 32.0466 397.019 97 63 7
11.6395 6.97729 394.727 112 72 2
7.55865 78.1059 372.497 117 79 7
8.73558 24.5035 380.356 103 62 1
4.05861 3.13558 418.39 108 72 5
8.07225 1.63539 387.082 111 79 8
25.7274 13.6078 391.807 108 73 10
-11.5724 50.0827 380.52 115 79 5
-16.1493 -18.8317 392.136 109 74 5
14.6254 34.8257 407.494 114 78 19
16.3103 57.6492 412.427 115 81 28
-3.57185 -18.6117 407.548 108 77 17
-32.0765 6.96602 388.273 112 77 12
-1.70674 60.4326 403.85 97 65 1
-29.4189 81.0796 382.863 130 92 32
19.6787 74.9217 418.24 122 92 32
-34.9559 5.81054 396.749 101 66 5
-10.9266 -5.20021 378.668 110 75 14
-22.3497 21.7222 417.351 103 70 5
42.2713 51.0897 383.1 102 63 0
35.8059 44.5351 382.326 93 53 0
16.3082 69.8914 418.798 100 75 21
32.9507 54.504 409.484 112 77 9
19.597 78.9644 401.373 128 95 40
-37.2186 20.0387 397.424 107 77 15
18.4327 44.7314 415.043 105 71 16
-26.4906 -5.38693 402.547 106 72 14
21.8812 61.749 414.658 114 82 17
26.8918 45.9778 411.816 107 73 16
11.569 46.4932 371.158 114 77 3
38.454 66.3825 400.15 116 84 25
6.8396 -3.19791 385.627 92 62 12
-9.69256 74.5471 421.952 109 81 22
39.293 50.6014 384.246 96 58 0
-20.8299 -12.6914 386.692 106 80 20
-36.6381 25.5694 401.544 114 78 5
16.7508 58.4369 412.535 122 85 23
-8.9531 68.7991 422.757 115 87 25
22.0348 71.3917 416.655 125 94 27
-26.628 19.2351 381.064 102 65 6
15.3779 68.4091 371.086 93 58 1
-21.6163 -13.3843 387.696 105 71 19
22.1848 26.6429 384.119 98 65 8
31.2742 43.5434 379.67 106 67 4
-8.1381 7.31154 422.339 107 75 11
-4.80433 59.9255 389.659 78 52 0
39.1023 62.2831 400.591 116 82 19
21.0229 18.88 385.938 92 62 0
6.69319 7.7741 403.572 126 84 18
11.0026 65.9356 371.897 120 80 9
-28.6296 -18.035 396.02 117 80 15
9.79104 81.5877 377.284 133 102 38
-28.5405 -16.9504 393.366 118 83 25
1.82357 81.467 379.61 137 102 48
-31.5469 55.0115 392.21 98 67 0
9.13505 10.7096 386.935 111 75 18
-5.02391 -4.24126 424.402 97 66 3
24.9822 69.4243 413.573 131 101 47
24.7038 46.4881 373.493 95 60 1
14.453 22.9429 392.841 96 60 2
11.5541 9.76486 394.009 112 75 13
20.9069 25.8103 393.062 115 77 14
-19.2784 75.3344 394.87 97 68 13
-19.1254 -18.9068 393.977 108 73 7
-3.63649 59.2205 402.614 115 80 23
36.6788 53.1766 385.797 97 60 0
-17.6749 57.1354 398.803 109 77 13
-3.14457 64.1109 381.828 129 94 15
31.3405 57.6073 375.146 92 60 1
-21.961 -8.25132 385.036 106 75 12
9.79158 73.4707 420.661 131 101 44
-20.7863 18.9041 417.096 113 78 10
20.5438 68.8783 417.926 129 97 36
-10.8038 33.6227 376.067 108 70 8
3.47546 12.7498 412.111 104 66 3
10.6086 3.78235 395.065 125 85 2
-5.07758 8.27429 421.526 122 85 14
-2.85309 -6.14685 423.605 112 76 3
30.0165 39.2254 378.76 103 67 1
-32.0438 70.4569 422.094 109 76 19
-6.88568 75.0331 378.271 118 86 27
-7.2896 -15.1213 415.54 121 85 20
-20.339 54.0099 406.188 97 68 6
-3.27971 52.5768 414.727 113 77 7
-30.4582 38.5733 380.174 116 84 21
20.1042 24.2889 391.916 97 68 0
-35.2481 74.8481 381.702 124 86 32
28.1643 78.3888 381.139 106 73 2
27.5421 61.7482 372.297 111 77 12
-3.81208 60.6517 395.027 103 68 0
-28.1743 -16.2273 389.342 122 86 18
10.2415 66.5886 418.949 116 83 25
34.3712 50.2762 407.816 108 71 5
-34.5111 43.8125 387.936 114 81 19
18.4293 68.4811 371.25 97 66 3
6.42028 -1.81073 383.79 102 63 4
-15.6846 61.7995 381.376 115 79 5
39.0213 59.1365 384.887 89 57 1
-31.2688 58.3722 387.373 114 82 17
36.4611 68.4179 403.504 118 86 29
39.6453 68.1168 390.622 123 86 30
-25.3496 8.83996 380.434 109 72 1
-1.16496 70.8288 376.688 119 84 25
-30.6772 76.4931 418.587 110 80 13
18.7315 26.9373 389.887 73 55 9
30.0563 42.8678 406.153 94 59 2
-16.5268 -10.6986 383.386 104 70 10
-10.5081 29.8845 421.393 113 77 9
-16.3366 9.1437 422.857 107 71 8
-8.50952 -9.1549 418.549 80 55 8
-16.9927 7.75516 376.541 92 59 6
-28.1947 65.7672 418.775 96 67 17
10.5871 79.3487 399.704 115 86 32
-10.5329 -0.894006 376.438 113 76 20
-27.5143 27.99 412.42 109 78 15
21.843 37.2774 382.122 81 48 2
-7.78504 64.8226 418.076 107 76 16
24.6735 34.1666 397.132 96 65 13
11.142 21.1608 385.924 98 67 2
-19.0288 44.8208 423.367 117 87 27
7.33523 0.113396 401.742 108 70 10
13.9922 44.2243 372.009 111 73 1
-19.931 -1.04158 379.76 106 70 5
-29.8436 29.1376 383.017 105 73 9
10.8374 -17.3965 393.11 114 77 7
6.74833 12.6579 380.901 112 70 0
13.7745 35.6716 378.111 106 71 4
-22.7123 65.6548 397.121 79 54 0
-29.7687 -6.62892 397.245 109 73 3
25.1948 28.7682 381.994 100 64 0
5.27445 16.9384 409.027 124 84 10
-4.86927 -8.59087 380.348 102 66 3
-24.5218 66.5348 412.253 100 73 20
14.9324 81.4954 380.712 139 106 46
26.6817 37.7925 379.381 103 66 1
4.7529 -1.32492 381.331 90 58 9
-25.3162 -14.3649 384.483 120 83 12
25.8427 32.3393 396.223 105 69 11
32.5992 37.1331 399.706 108 74 6
32.7864 58.0375 411.17 104 69 8
18.6672 78.6088 376.178 119 85 29
33.1791 30.8008 381.286 65 41 0
36.1806 73.7524 389.481 113 83 19
-30.6649 16.0967 407.269 98 64 6
3.86842 44.5198 375.334 109 72 7
1.75348 -6.81405 383.385 97 67 20
-20.5249 -17.6759 406.94 118 83 28
6.2868 -13.8235 381.882 106 71 0
-24.3776 75.6964 414.355 99 75 9
8.75348 41.3545 412.828 108 71 1
-7.06255 42.1359 377.061 104 68 2
39.1483 26.6572 388.436 108 68 1
-24.8623 -0.098375 381.733 110 72 9
4.19179 48.2442 413.443 100 68 5
-32.9267 28.7619 407.279 99 67 6
-38.2561 77.4443 390.854 115 85 21
29.5785 28.8938 381.186 95 62 0
4.61255 75.7644 417.014 100 71 14
-16.8799 -15.3313 387.22 107 74 16
-5.00814 39.9531 420.662 105 69 4
15.4409 35.8083 407.207 115 78 18
12.939 37.0394 377.494 113 75 12
9.10469 1.1756 388.329 115 80 20
7.78635 21.2914 381.52 104 64 1
-37.2955 21.5635 399.474 101 69 5
-28.8365 13.1665 406.937 115 75 12
-7.59454 44.8937 422.902 111 75 14
19.4828 80.8665 385.113 131 100 37
-3.71643 78.3248 377.168 117 83 16
-30.9911 7.65849 402.858 108 74 12
-33.188 73.3125 381.275 118 83 20
-30.4247 21.1037 409.306 107 70 2
-9.96847 5.37012 423.806 110 76 11
-6.24848 26.0864 417.779 106 69 0
-17.4278 71.5506 411.093 104 77 19
9.384 68.4821 420.199 128 91 31
-19.3052 -5.00356 380.411 110 77 14
-14.6698 -5.22909 421.931 90 64 10
-23.9385 28.1471 415.701 99 67 7
2.98489 78.392 392.222 104 75 20
6.77023 19.2937 408.639 119 78 7
-26.216 49.3181 378.589 102 69 11
4.06012 70.0942 373.539 107 69 0
42.0834 56.8889 384.208 98 61 1
8.41403 -7.89241 388.57 120 84 21
8.18319 16.4975 405.083 98 63 5
-35.7588 31.494 404.304 95 64 0
-25.2647 73.8624 431.64 98 69 6
-31.2687 55.8622 388.223 107 77 14
-5.10467 69.2698 379.737 124 93 14
-28.2429 71.9451 414.753 97 68 7
-26.4772 -10.3119 402.064 110 76 8
36.3927 64.3437 406.008 122 89 34
-12.2137 62.4078 391.882 99 69 12
9.6768 13.2929 396.58 110 71 3
-15.0094 -5.24704 421.14 92 66 2
14.1213 25.7375 404.809 99 67 2
28.6909 41.6381 378.776 103 66 1
33.4139 49.1496 382.562 97 61 1
32.2104 19.4276 389.729 96 65 12
-17.4035 63.6778 396.315 91 62 5
23.0117 58.676 371.728 106 68 1
23.6392 42.0608 412.132 108 68 1
-5.99604 65.8713 385.648 77 46 0
-6.80632 59.081 406.261 112 78 18
10.7647 75.3456 373.625 115 79 20
10.5744 -3.8604 393.925 113 76 10
-4.12885 77.0628 385.294 82 55 15
-2.36955 59.7374 403.577 102 68 11
17.721 65.6624 368.983 114 76 1
33.8701 76.4947 399.538 123 91 35
26.5168 39.1795 379.328 99 62 1
46.2668 58.2863 391.996 114 78 12
7.26037 -18.2202 390.546 108 74 5
-26.4401 29.9752 413.759 112 79 27
-18.0067 -12.7198 385.483 97 73 25
-8.59456 22.5086 375.583 112 76 5
-5.70011 58.0464 390.878 94 65 0
-26.9054 51.6156 415.91 110 80 12
-6.82293 10.6818 375.332 104 66 2
3.64714 81.0633 384.297 127 100 43
-33.8848 13.2493 399.63 106 69 1
17.546 73.4573 419.939 124 93 34
8.22993 0.659309 399.539 117 77 2
-33.0652 1.38983 397.291 110 74 4
-25.13 55.369 379.615 117 80 23
-27.969 8.16057 409.281 108 71 4
22.3209 47.6129 372.001 108 70 0
34.8244 43.7023 396.501 107 70 1
4.35334 75.1864 400.612 95 64 7
-32.4804 16.6631 403.605 113 77 9
-25.4142 40.3866 419.866 115 84 22
-32.483 67.7803 393.274 105 74 13
-7.05845 2.46481 423.729 126 88 27
-37.0654 19.0511 396.96 109 77 13
11.8197 63.5698 372.526 113 71 1
16.0744 31.2249 403.962 106 69 2
1.74146 15.357 378.408 114 76 8
30.0866 43.8538 379.552 109 73 11
-35.9513 24.1099 400.821 109 76 7
-25.608 62.7697 417.421 106 77 24
4.05777 73.2106 405.114 89 60 5
39.5001 67.7631 388.38 126 87 28
5.49877 10.1827 409.915 107 70 8
38.8125 62.7603 401.269 114 80 20
-6.74512 50.1328 382.773 101 69 3
8.32721 30.688 377.358 112 70 1
8.65069 -16.4674 386.815 115 79 20
12.0755 32.856 378.139 110 74 15
24.381 80.0887 393.107 120 91 27
-3.05893 1.10909 378.482 104 68 1
-23.1694 76.3869 427.571 130 102 48
-13.8133 -2.58662 424.652 118 81 11
-36.1527 8.01148 393.352 106 73 2
-29.7627 -8.08147 393.581 116 80 1
42.9269 58.2831 393.318 125 89 24
-0.0578609 -12.3162 384.954 120 82 15
11.124 20.2227 386.218 103 69 17
1.1843 68.0316 399.593 90 60 4
-25.1884 28.5208 414.525 107 77 4
-10.8149 -17.902 389.464 104 72 8
15.8145 28.5599 383.66 87 59 10
3.93927 36.5662 413.883 104 67 1
-11.1305 32.3642 375.771 117 77 4
-5.39388 49.321 420.717 118 82 20
21.6303 34.1801 400.051 110 74 10
5.96294 -2.38355 404.29 116 78 2
31.303 55.3197 413.108 104 73 6
-34.6451 43.0061 388.988 112 77 17
31.0444 48.1748 409.974 115 77 13
-28.3266 72.3731 398.2 66 45 0
-34.2775 37.2507 390.184 110 78 12
-31.2379 58.9494 390.586 109 77 20
-22.5197 4.8438 380.404 109 75 15
21.5057 60.8553 413.775 108 79 26
20.0623 76.8854 415.111 123 94 33
43.8854 40.2644 383.861 101 70 12
0.134278 -14.8922 387.116 110 77 27
-8.30181 33.5631 421.413 121 78 19
-9.77606 46.0498 424.555 102 72 2
3.50779 -11.9971 382.607 104 68 0
-22.7947 8.28559 416.615 115 83 26
7.11347 0.331273 384.273 105 67 5
-33.5375 68.7471 388.95 110 81 22
-3.56854 51.0597 416.914 114 79 21
-24.2701 64.9935 397.219 79 53 2
-20.1139 45.5547 375.398 119 79 13
31.0381 79.3302 397.809 127 97 35
45.7477 43.3424 386.855 120 82 24
36.7305 31.408 381.98 93 64 4
-5.19309 59.4368 392.05 99 66 5
11.9369 68.2806 419.427 101 70 9
-5.55063 -8.54424 423.733 89 57 4
31.6448 21.9387 392.52 110 74 2
29.9384 80.2688 392.85 136 100 35
11.7188 6.63148 394.389 109 72 4
4.66639 -10.2141 406.956 128 86 2
-24.3126 79.8838 394.624 122 92 32
-19.8121 76.9948 413.929 112 82 23
22.5261 49.9492 414.132 100 64 0
-30.2486 52.6459 383.285 105 73 16
10.2802 -1.47447 395.287 122 83 3
-19.3142 -9.69736 383.744 106 77 20
18.8382 28.5255 386.398 85 59 9
-11.1048 -10.7209 415.004 118 83 26
-13.3824 25.5774 375.491 97 60 1
-19.3816 71.4336 430.144 94 68 14
-34.5155 81.2091 383.92 124 90 36
31.4394 61.4751 375.254 98 68 9
-6.00006 1.58099 423.017 123 85 20
-32.4409 25.6456 407.196 111 72 0
-27.3801 -0.656962 386.528 95 68 2
6.97889 50.5407 371.717 107 68 1
38.8232 26.3858 388.804 106 67 2
6.15561 15.1004 408.035 111 70 1
16.424 39.3971 376.817 87 54 1
16.0821 38.4147 409.779 95 62 6
43.597 63.0372 386.537 130 94 33
15.2735 72.0947 420.329 123 90 33
-15.701 -20.2213 396.403 107 73 7
17.6733 29.3494 385.003 82 54 4
16.0058 60.4154 413.719 124 88 27
-2.25657 43.2844 377.375 107 71 1
-8.8388 10.942 374.356 106 69 3
31.6518 58.5978 413.567 104 78 22
23.6557 76.3369 376.171 112 76 15
44.4955 38.4998 385.469 116 80 8
-22.4849 76.739 424.374 106 79 19
23.456 80.4062 390.159 127 97 36
7.27797 77.7766 413.217 122 89 28
18.4293 40.6999 375.612 89 55 1
-8.39871 -15.6747 415.439 126 88 22
9.49538 31.4198 410.339 111 72 14
8.59736 16.7683 382.581 104 66 4
-17.0468 78.38 390.718 116 88 36
32.57 29.1673 381.423 71 41 0
-15.609 74.8624 389.127 102 74 15
-29.9577 -4.89147 398.553 110 76 9
-7.62854 -10.616 381.113 113 80 26
-29.6852 -4.45112 388.722 124 87 10
-24.8506 22.5404 378.969 107 71 12
-16.0644 14.1846 419.715 107 76 8
-25.1372 32.0261 417.004 110 77 8
-25.5536 71.4592 379.529 119 84 25
-27.6219 45.6729 411.063 123 90 32
32.1846 52.7849 409.228 114 76 20
-3.5797 -10.3287 382.345 102 71 17
-19.9655 34.8721 375.607 121 82 12
0.363786 25.2629 415.332 93 60 2
-30.3438 -1.36089 388.72 117 81 15
-31.2533 64.4112 390.071 112 81 31
29.6584 61.4266 373.583 101 69 1
-17.8657 77.8046 416.519 121 92 34
11.8577 76.5279 374.366 114 79 8
0.0982944 71.6968 376.249 122 85 20
29.2119 28.5038 396.102 117 76 4
2.49101 6.03561 379.644 99 62 3
5.6645 18.0926 409.043 119 82 12
6.33827 -17.3569 400.209 111 76 18
11.7131 -12.5382 391.14 107 73 2
10.4084 44.5749 414.186 116 75 8
29.3702 44.767 409.906 106 68 3
-4.88602 22.7655 417.998 100 60 1
2.63488 -1.21742 380.265 105 68 6
-13.5395 -10.65 382.67 115 80 7
21.5914 45.3705 372.535 102 63 1
20.8541 23.0619 384.75 103 67 7
5.01742 -16.4081 383.897 106 69 6
26.2608 12.3882 384.511 99 69 0
0.659285 56.7172 382.708 115 80 15
-25.4252 77.6415 396.709 92 66 11
9.58224 -6.87857 390.545 114 75 3
15.3493 48.5177 371.022 108 70 1
-36.4188 18.1871 394.557 115 80 28
37.2779 71.1512 387.787 114 82 16
-25.2513 81.2806 384.094 122 87 32
9.6356 22.7786 405.851 119 81 20
-11.8853 -0.695887 376.54 103 68 19
4.3289 42.0699 376.168 105 71 10
-13.2353 76.1755 425.959 115 89 30
24.8039 79.0108 398.76 127 98 36
-9.20378 68.1982 423.446 120 88 33
38.496 51.9948 385.633 92 55 0
-36.0703 72.6249 394.752 100 73 18
38.1045 57.5571 385.905 92 55 0
-22.9414 -4.86072 410.185 106 74 3
-14.6568 -10.0491 414.392 133 99 26
-21.9872 10.4977 416.901 106 73 3
-26.3207 47.3331 407.558 116 80 19
7.77857 12.3034 401.293 104 67 5
-4.63353 55.4144 415.54 109 77 15
-1.69732 52.7093 411.077 93 65 4
2.16198 20.1882 416.2 105 68 1
21.0129 65.252 369.897 111 75 2
-24.0963 52.2905 401.294 113 80 21
-20.2878 -5.49192 413.641 113 82 17
-4.91684 -13.468 384.827 109 77 18
-10.4601 74.6405 424.236 115 83 28
6.93008 -2.69502 385.673 102 67 7
-8.61999 25.7214 375.985 114 76 5
-24.105 -7.47575 386.675 127 92 28
7.15184 13.7972 403.38 107 68 3
14.6361 38.4071 377.711 92 59 2
-7.50883 57.985 404.919 30 10 0
3.74128 72.4585 405.976 86 58 1
9.19812 9.77578 398.197 110 73 1
12.1194 80.0882 393.489 124 90 33
2.85469 13.9463 413.566 106 69 1
9.42355 -1.2513 388.04 114 75 6
36.695 52.5123 404.684 100 68 7
-10.7483 59.0965 424.604 120 85 29
0.17924 36.449 415.539 108 72 4
35.1977 50.2864 406.526 103 67 3
-18.8784 12.8213 376.242 100 63 1
3.39014 19.0125 413.25 118 78 12
-4.77721 79.8597 382.808 108 77 15
-33.8155 43.3922 392.204 103 72 5
-30.0077 38.555 409.756 108 76 20
8.53992 80.3838 374.625 121 86 28
-24.6989 25.5927 379.811 111 77 16
0.762852 37.5151 415.105 106 70 0
4.20608 79.3648 374.559 122 87 22
0.862706 36.9664 376.606 109 72 2
9.57902 60.4462 414.199 110 76 16
3.47219 11.2472 415.146 93 59 1
22.6705 14.8534 385.754 99 67 5
-1.04228 46.9229 378.664 105 66 0
23.8019 37.9674 403.056 85 57 4
3.60211 8.46718 417.015 104 64 3
7.47818 6.43309 402.655 115 76 9
12.0487 27.8883 408.127 111 72 1
-33.2759 33.758 385.658 115 81 21
-8.20676 46.2301 380.009 110 72 9
-0.373544 74.6012 374.642 112 77 8
-18.1261 65.3511 409.383 100 73 20
20.542 20.6484 386.189 85 60 1
20.4767 58.135 369.693 106 70 1
3.13443 -6.40453 383.56 99 72 7
38.6563 60.7691 384.029 99 65 1
9.51287 -8.19525 393.248 117 83 11
-4.25557 11.2439 420.924 108 71 0
-26.0948 29.2382 378.785 109 75 3
23.3728 42.6353 412.578 108 72 4
-32.9681 80.4185 382.624 132 91 37
-31.184 -5.50192 396.634 109 74 3
-20.257 -1.06889 420.298 107 72 7
29.0508 12.6266 390.441 122 86 26
-5.58992 63.7979 384.223 118 86 9
-15.5493 -15.4186 413.913 121 89 21
11.1568 -13.0801 388.299 111 78 15
-15.644 4.81323 377.349 101 68 0
12.0945 76.828 418.844 133 101 31
5.29332 -9.79828 384.562 108 68 0
-32.4689 52.807 390.287 111 77 6
-13.9676 -8.14763 415.16 114 85 27
30.3682 30.2873 381.023 94 60 2
25.1139 48.0949 372.752 101 65 1
-5.98258 4.7346 376.985 103 65 4
7.74808 14.8768 382.278 106 66 2
-30.1152 -5.58495 397.982 106 74 4
11.07 19.3016 402.643 91 56 1
39.6148 55.715 389.043 76 39 0
-0.336727 64.2824 401.006 94 63 3
-0.0121872 61.8526 381.223 112 77 6
-13.1626 58.839 383.894 104 70 12
-27.6868 -18.1692 394.928 114 78 19
-13.035 7.90022 375.788 95 65 6
0.531859 -7.24579 413.422 106 73 20
27.9159 35.1221 399.249 95 62 4
25.0059 21.7167 394.814 114 76 8
25.096 24.8085 395.645 116 80 15
-14.9602 -20.3067 396.323 104 73 14
16.1889 81.0423 383.148 134 103 47
-30.7999 19.2997 409.289 105 69 0
-11.387 27.9363 421.048 115 80 14
-24.0989 18.0683 413.337 102 70 3
-27.746 20.3935 383.987 98 64 1
-32.4601 10.7343 400.638 107 72 14
-23.7591 -8.82941 408.709 115 80 15
7.91754 -2.5984 386.472 110 74 6
11.529 17.9146 396.13 118 78 9
-14.9714 45.9859 376.131 120 81 15
28.285 47.0651 411.246 108 74 18
-10.0126 -12.1123 382.483 112 79 19
24.2316 79.041 400.097 128 94 34
-28.8631 -1.02807 402.332 99 68 2
-6.39953 2.43293 376.437 107 67 3
0.501411 81.0683 377.795 127 93 27
44.3349 39.6627 390.771 112 71 0
-32.3146 32.8017 383.904 111 75 12
24.817 48.3138 411.022 102 70 0
-7.38657 -7.85044 379.916 108 73 11
22.6623 42.6692 376.003 86 55 1
4.88129 21.5381 412.785 96 59 1
-28.0488 78.9379 396.76 105 77 20
1.77358 22.3995 376.371 107 65 1
-31.3093 23.8614 389.707 120 87 20
