ply
format ascii 1.0
comment Created by Open3D
element vertex 1399
property double x
property double y
property double z
property uchar red
property uchar green
property uchar blue
end_header
-286.705 70.7768 318.472 116 86 22
-258.812 -12.0646 284.56 115 79 19
-231.866 35.8141 299.586 106 68 1
-233.199 81.0752 296.879 125 96 34
-226.848 17.1258 318.41 101 67 11
-242.294 5.99446 300.301 112 72 11
-283.365 15.5155 282.413 107 71 1
-251.758 63.4747 331.163 113 80 23
-270.281 -7.08547 318.591 77 53 5
-279.747 -12.5309 290.014 103 71 7
-249.797 58.0143 293.864 120 87 24
-245.861 78.6442 320.182 121 90 36
-265.339 74.4519 325.886 127 93 33
-223.038 75.5488 320.05 112 82 21
-252.213 2.13573 312.908 103 67 2
-253.853 66.9341 332.395 125 94 31
-267.679 59.1884 304.04 122 86 25
-250.726 78.5473 318.095 114 85 30
-283.877 48.7463 297.02 118 84 25
-262.793 32.5234 319.633 110 73 4
-257.529 32.417 320.438 106 67 1
-285.224 56.904 315.556 115 83 21
-260.563 -4.26435 316.844 109 71 10
-244.47 69.8112 287.508 122 86 11
-285.915 26.3383 298.574 111 74 15
-250.92 28.6407 279.678 94 59 1
-262.514 18.7764 274.722 109 75 15
-283.399 -0.232762 294.518 110 76 17
-248.557 62.0713 332.637 125 92 22
-286.963 31.8849 286.587 90 59 0
-229.621 49.8803 290.996 110 72 1
-276.527 45.2765 319.203 115 83 18
-260.745 59.616 305.249 110 75 10
-280.732 71.1358 284.201 96 70 21
-222.015 45.0882 307.313 82 55 8
-258.99 59.5114 322.282 104 71 10
-261.051 70.159 288.362 93 64 1
-231.363 36.6805 300.287 110 73 4
-248.435 -9.92113 289.923 95 62 10
-254.737 -18.2212 307.831 108 76 18
-239.832 49.8479 333.883 110 76 12
-262.955 -16.0722 286.806 99 73 20
-234.477 23.6788 309.535 79 51 0
-280.034 70.0872 283.823 102 74 13
-283.256 15.4915 281.119 111 78 21
-276.337 74.5712 270.616 102 72 13
-270.53 21.4731 316.776 107 70 1
-241.983 3.5182 303.889 99 68 11
-253.451 78.4562 315.228 114 84 26
-267.278 19.2565 275.663 86 55 0
-276.208 1.89246 277.951 117 86 16
-255.128 53.8226 289.944 104 70 4
-278.575 32.4306 279.784 112 78 15
-274.003 55.0789 277.841 112 79 19
-266.351 -14.3947 282.839 111 75 9
-280.957 72.6308 278.47 112 82 24
-213.203 41.6236 322.156 93 62 1
-263.236 18.4329 274.816 110 76 9
-230.147 24.3451 308.539 103 68 6
-253.094 35.0259 321.558 112 73 8
-282.52 2.42675 298.445 95 61 0
-238.623 33.7543 291.535 114 78 14
-261.074 75.599 285.922 104 71 10
-255.361 56.2859 294.205 101 70 8
-285.788 22.9863 295.369 94 62 0
-247.797 64.5692 332.95 127 95 34
-286.433 23.0631 288.533 118 82 19
-257.749 77.6363 327.999 138 105 44
-219.638 34.9071 326.867 94 55 2
-278.068 -9.31194 289.382 119 83 20
-265.293 28.7712 318.289 114 78 18
-243.143 61.8197 291.934 113 78 2
-252.755 66.3666 293.146 64 35 6
-284.676 5.99865 303.909 114 79 23
-285.768 40.7673 296.681 121 90 28
-271.597 62.2008 312.598 102 70 9
-266.01 73.567 323.425 102 76 19
-252.744 78.6438 314.936 111 83 36
-280.652 7.92466 278.216 108 73 1
-250.308 78.816 291.283 96 65 15
-272.895 22.2624 278.216 120 84 24
-266.81 59.7307 274.249 116 84 35
-247.208 -11.4916 310.188 106 70 12
-280.372 -2.39876 287.057 118 75 2
-280.509 79.6 282.411 131 93 35
-258.914 2.88743 277.952 105 72 2
-276.095 61.516 283.414 113 83 23
-278.157 62.0626 300.61 93 70 18
-244.796 18.0478 310.956 105 66 6
-262.793 55.2454 314.575 97 67 9
-271.916 65.8753 275.362 116 85 33
-276.381 74.0828 271.677 101 67 14
-258.28 -15.5554 287.753 112 76 14
-286.305 35.2597 288.11 104 73 4
-259.357 13.8566 274.741 100 65 8
-260.713 -1.92263 277.209 109 76 17
-265.779 22.8611 319.906 103 67 1
-286.909 30.7662 296.26 114 81 25
-251.865 -6.31803 283.616 113 78 14
-230.655 48.1856 330.549 97 61 1
-248.114 56.7926 293.695 116 81 21
-288.283 40.418 300.082 109 81 30
-263.622 74.195 320.272 90 62 12
-229.137 41.5163 295.052 100 63 1
-257.63 63.6675 327.04 113 81 22
-234.009 21.5183 318.829 112 74 7
-270.751 60.1429 275.171 113 82 22
-258.478 28.9169 275.218 119 84 15
-269.747 -19.4865 307.458 116 82 12
-229.578 53.6416 290.703 113 69 0
-256.394 57.3761 281.386 121 84 15
-257.196 50.2513 326.375 111 77 16
-236.256 52.2294 334.859 120 80 16
-268.406 -3.20041 323.246 107 71 4
-254.675 52.4351 279.376 117 79 3
-278.843 50.366 319.294 110 73 16
-277.259 0.307289 319.902 109 72 10
-273.145 80.8078 277.408 76 55 7
-238.758 25.843 293.129 109 71 1
-278.094 -9.08673 289.431 120 84 24
-254.231 57.6814 294.896 91 61 0
-245.865 10.4257 309.978 115 75 7
-287.987 58.0926 309.278 118 83 21
-286.871 68.3534 318.422 118 87 34
-240.894 21.1566 290.855 93 58 1
-253.542 49.7312 282.257 114 78 5
-285.98 1.46639 306.034 114 80 20
-264.177 62.5604 320.53 104 70 9
-215.053 61.0709 327.457 132 94 17
-275.089 -1.79058 321.917 123 81 2
-261.112 -15.9621 286.86 112 78 16
-275.025 52.162 277.324 109 77 6
-288.877 61.4625 310.907 108 75 15
-276.887 26.0293 316.126 107 68 0
-281.877 -4.80598 302.411 97 67 1
-276.151 51.0789 277.867 106 76 7
-254.84 48.9589 276.51 125 89 4
-252.661 2.15808 313.404 100 65 2
-282.819 -4.36318 307.538 98 70 12
-217.454 59.9104 319.106 87 54 1
-247.411 26.3333 318.029 104 66 2
-276.918 -17.499 302.295 113 80 22
-276.462 78.9267 268.87 117 82 10
-261.106 34.9745 272.914 114 76 19
-261.112 45.0238 273.007 119 78 19
-270.149 53.9734 274.643 111 75 9
-282.572 49.4049 296.842 112 79 14
-269.448 57.0881 300.27 115 79 10
-226.48 17.9806 310.541 99 67 5
-271.321 47.0591 273.866 103 72 16
-269.839 -4.80593 323.009 98 61 5
-244.616 12.7775 285.157 100 59 1
-259.19 27.2149 275.532 118 77 15
-260.302 59.925 276.024 120 83 26
-283.629 7.66236 290.408 110 73 6
-217.91 56.2264 312.666 89 57 1
-243.448 -4.67001 292.924 105 65 5
-278.071 -1.4013 279.162 96 65 4
-219.384 50.1021 311.617 85 54 3
-232.071 75.9554 328.918 113 84 24
-248.96 16.0511 311.821 105 68 2
-249.383 -8.77017 309.601 125 87 6
-223.507 78.7697 312.722 108 75 3
-273.633 66.8915 288.944 70 47 0
-257.572 62.6769 304.335 96 65 0
-243.322 0.321244 306.205 111 75 6
-252.442 -8.42959 312.33 96 60 2
-277.748 67.2684 302.171 100 73 20
-250.386 54.7118 293.065 103 66 2
-240.315 77.8459 328.884 126 96 34
-262.577 -0.491901 276.747 97 61 0
-218.951 52.4514 313.56 85 54 2
-269.164 -18.3668 287.839 103 73 22
-267.577 -13.2549 314.234 133 92 8
-278.041 -7.71417 313.52 82 61 20
-219.884 65.3562 326.797 132 96 40
-278.796 -17.7904 285.969 119 78 10
-287.217 26.1317 286.98 102 70 3
-226.221 60.0459 331.097 107 73 17
-269.196 80.3931 282.207 68 42 0
-266.874 77.3706 289.621 106 76 14
-243.129 -8.79924 303.05 110 76 6
-227.584 40.2655 304.224 82 56 5
-289.749 63.6885 304.409 105 72 16
-283.215 13.3383 303.548 111 78 14
-297.363 73.5575 310.907 111 81 25
-242.453 4.4598 301.265 105 72 5
-251.235 62.5459 330.997 109 76 23
-284.895 -2.59769 311.059 113 77 23
-281.11 21.0415 279.055 107 73 2
-281.079 -6.96205 316.567 91 60 6
-280.66 18.1695 311.261 114 81 19
-289.477 41.2983 303.923 118 86 23
-283.254 60.5377 319.738 117 82 13
-243.575 -12.8521 308.875 111 77 15
-266.066 10.3465 321.761 100 63 1
-259.545 34.1749 319.901 111 72 12
-294.764 66.5595 308.644 122 84 15
-285.965 56.0018 299.984 116 84 21
-278.22 20.2786 315.581 125 86 18
-262.463 80.6802 281.096 116 83 22
-230.599 76.2536 294.88 112 78 9
-279.232 51.4323 319.047 111 81 23
-287.643 57.4438 310.848 115 84 26
-259.489 -18.0089 290.74 112 77 20
-284.814 43.1817 293.149 110 78 25
-251.088 41.5043 328.915 108 72 11
-281.717 56.9938 317.907 121 86 29
-282.609 9.01416 281.036 106 69 1
-235.14 49.4964 334.07 109 71 4
-284.012 16.3723 299.77 107 73 15
-232.636 80.3465 296.291 119 86 19
-277.259 -17.8929 296.679 115 80 23
-287.125 22.1067 292.419 99 66 0
-249.852 28.8021 280.086 107 71 5
-246.527 46.3197 287.899 99 64 1
-238.64 63.256 291.965 113 78 13
-236.972 29.2849 315.597 111 76 8
-257.324 42.3836 322.585 120 80 15
-253.335 -16.437 293.37 100 68 2
-280.402 79.294 275.784 115 84 25
-255.67 54.5577 289.449 106 71 5
-220.215 49.4697 328.105 104 67 4
-232.643 18.8627 318.806 106 72 14
-281.389 22.4867 310.986 111 78 8
-215.09 63.4806 323.043 124 88 25
-257.057 61.2626 282.223 114 77 13
-256.862 55.6232 277.83 115 79 14
-218.528 51.6649 303.221 101 64 1
-276.313 40.2371 275.423 107 74 2
-283.616 14.5291 297.528 110 75 14
-273.956 27.6578 316.12 119 82 21
-260.327 59.5182 303.917 110 78 11
-254.499 18.2258 276.739 103 64 0
-270.279 65.2967 290.981 86 59 6
-268.519 30.6713 273.277 106 76 21
-286.926 23.8644 301.613 111 77 14
-224.293 18.3449 313.524 95 64 0
-260.348 2.68009 277.068 107 72 3
-279.204 55.2603 318.418 114 81 14
-215.272 33.2118 318.516 87 53 0
-251.101 78.9834 314.37 117 86 29
-263.71 -16.5805 314.147 107 71 6
-265.126 73.7381 321.683 89 60 12
-249.958 56.0547 330.256 102 70 5
-276.72 73.2141 287.324 68 47 0
-276.382 17.4809 317.089 117 79 9
-240.666 17.8411 292.015 113 71 1
-230.673 23.3559 308.354 104 69 8
-244.688 -6.96236 295.451 100 67 8
-265.433 -19.4514 308.278 113 78 22
-262.516 75.0541 319.826 96 64 10
-259.472 23.1209 319.095 111 72 1
-246.367 59.8091 334.122 120 88 21
-257.416 -19.7082 296.843 99 67 4
-231.444 70.7326 331.564 116 86 27
-266.451 79.9794 287.385 120 93 36
-274.999 64.574 287.55 93 65 17
-274.197 35.2714 317.88 117 82 17
-223.864 20.0088 313.355 91 63 3
-265.575 71.2113 326.399 123 90 27
-281.919 6.04843 287.639 102 67 0
-273.347 9.74219 278.023 121 85 27
-241.93 4.78173 305.844 105 71 4
-267.673 30.7909 273.027 108 74 13
-231.776 20.6324 308.567 96 63 0
-266.559 67.1219 273.507 117 84 25
-245.516 72.1804 286.912 107 74 15
-240.006 72.4023 287.622 114 78 14
-227.357 54.6366 292.094 112 72 1
-278.05 -7.69339 313.362 83 62 20
-223.642 26.7949 310.402 103 67 5
-274.25 54.5258 291.48 103 73 12
-286.465 20.8124 293.757 100 67 3
-247.876 1.58348 309.607 115 80 2
-245.518 45.14 287.716 102 67 1
-281.213 36.8729 316.902 112 80 19
-259.731 62.7708 325.48 113 79 20
-216.329 46.5422 317.937 95 58 0
-227.469 80.7711 316.992 125 95 31
-281.109 70.0101 319.009 120 88 29
-230.448 64.4394 292.382 111 71 0
-267.346 23.2946 318.436 109 75 6
-288.796 47.0629 308.183 100 72 11
-272.297 -16.3624 280.711 121 82 17
-255.438 -9.19889 284.11 111 79 19
-276.329 53.282 279.143 104 75 15
-281.748 -6.30407 315.194 88 61 8
-278.413 -5.77425 281.522 107 73 6
-245.364 57.0822 334.085 128 92 21
-268.703 -18.7214 289.101 106 76 23
-242.035 6.42088 299.459 111 72 2
-230.2 19.1407 320.375 109 70 5
-251.221 18.0487 279.069 105 67 3
-282.232 10.2679 287.188 107 72 12
-284.069 -1.91939 299.751 101 66 0
-271.107 -11.4471 313.928 114 81 16
-267.834 -16.7826 312.653 103 72 18
-227.86 20.3958 320.753 115 74 5
-269.283 27.9763 317.209 115 78 10
-259.231 -20.4886 299.662 108 72 13
-259.249 46.896 322.564 117 83 21
-248.98 15.5459 311.593 99 62 1
-283.169 12.722 300.971 110 80 17
-240.808 16.2279 306.646 101 66 4
-222.515 41.265 327.891 109 72 4
-283.968 -2.43886 315.834 120 82 7
-240.556 39.3589 326.999 91 57 2
-280.698 70.2022 301.664 92 71 12
-258.758 68.6457 279.37 117 81 15
-261.947 63.7407 292.394 104 71 12
-241.19 21.2428 292.094 99 64 1
-260.647 65.5974 312.106 85 55 0
-272.713 -19.3561 304.219 115 82 22
-267.167 10.6703 321.916 96 64 1
-241.148 49.9906 333.106 112 79 14
-292.368 69.8222 316.863 113 84 24
-218.654 50.6286 304.362 94 58 1
-262.918 25.1604 319.9 100 64 1
-272.841 -6.64842 322.698 103 64 4
-274.426 -19.4809 296.433 116 84 25
-241.073 20.3174 289.555 101 59 1
-287.806 47.9631 299.685 122 87 21
-285.5 24.1363 295.554 112 78 16
-258.181 64.1958 284.402 104 71 1
-224.901 77.8142 320.579 115 84 28
-277.624 -8.3965 320.881 100 68 1
-283.788 15.4063 287.783 108 76 11
-286.236 44.9998 313.692 112 79 12
-255.97 1.95305 316.601 97 62 2
-246.932 -18.5656 304.955 111 73 7
-261.206 7.23677 317.896 104 66 6
-242.212 -14.6821 307.429 111 83 21
-228.771 32.5252 308.583 102 68 3
-243.593 -9.00165 298.347 107 71 1
-252.696 43.62 329.406 111 76 16
-246.295 2.81081 308.868 120 78 2
-285.396 75.0085 318.488 106 80 24
-268.155 4.70841 323.179 104 66 3
-250.974 3.02522 279.623 110 73 16
-233.664 32.2725 298.229 103 66 0
-286.8 28.9718 293.678 120 85 25
-279.368 -7.22437 292.503 107 73 1
-283.053 12.3088 311.922 99 70 6
-262.348 48.0253 319.592 101 71 5
-266.505 43.6716 272.346 107 72 5
-285.12 30.4173 308.862 106 75 13
-275.866 63.9194 281.08 113 83 29
-277.854 29.7296 279.421 116 79 16
-269.424 36.8474 271.762 116 82 27
-219.93 41.8604 311.137 96 59 1
-250.59 70.2534 288.213 104 76 1
-263.314 80.3738 284.13 118 84 27
-269.423 -18.4319 286.806 106 72 9
-284.275 0.707367 299.332 101 68 1
-267.336 6.99501 277.626 102 69 5
-287.271 31.6693 287.051 91 61 0
-240.609 24.3704 311.056 89 55 2
-242.986 14.6025 308.292 104 68 4
-284.541 17.8935 303.424 112 77 16
-214.698 39.305 325.935 120 81 22
-274.239 -17.2677 283.184 118 81 20
-251.044 64.9879 332.48 118 86 19
-280.727 -8.93337 295.692 118 83 16
-259.055 50.8558 321.898 105 73 8
-288.302 39.6271 308.503 118 83 12
-227.2 70.6215 294.703 119 83 22
-259.848 58.4772 320.351 117 80 23
-266.961 64.6742 273.657 111 79 17
-265.906 58.4174 305.555 55 21 0
-253.776 66.8105 332.407 125 92 19
-279.834 -12.4453 301.643 125 91 37
-275.246 57.3545 279.167 107 78 20
-248.699 63.3791 290.519 127 92 12
-276.671 74.378 314.622 105 79 20
-253.019 36.0007 278.744 118 85 26
-233.617 80.4886 311.556 124 92 25
-280.671 14.5112 313.365 116 81 16
-251.528 60.4048 328.446 110 77 17
-250.938 -9.80792 311.675 95 60 2
-283.124 71.3128 319.151 118 86 21
-284.121 13.9622 285.707 110 78 21
-270.563 60.8617 303.728 119 84 20
-232.711 76.6859 291.931 112 77 11
-287.803 26.7551 286.351 108 70 1
-277.156 1.67098 319.934 130 90 22
-247.747 30.9899 282.441 112 76 3
-286.44 76.592 309.344 0 0 0
-263.694 7.34898 320.152 106 69 2
-223 66.5949 328.167 119 86 23
-277.227 67.8251 317.176 112 83 24
-252.732 -4.78049 281.828 113 79 15
-261.757 59.2378 309.58 98 64 0
-243.809 79.3665 316.334 116 87 28
-267.923 -3.504 322.819 99 65 8
-280.727 61.3531 319.056 118 86 24
-288.721 61.7639 305.884 119 85 26
-224.078 51.7386 298.533 103 67 3
-279.723 69.6827 281.803 98 71 19
-288.881 41.5028 308.271 115 82 14
-250.798 12.5986 279.573 115 79 7
-264.346 7.13809 276.026 88 56 0
-282.547 -4.77303 310.959 102 73 20
-248.1 37.4368 323.24 90 61 2
-266.547 25.7974 275.583 105 71 6
-245.557 75.8877 331.303 121 91 31
-253.799 53.2387 291.035 100 64 4
-235.137 27.9376 319.053 119 82 13
-283.834 57.2482 299.162 115 83 18
-273.855 -4.14968 322.064 118 84 7
-242.511 61.8507 335.237 91 65 16
-285.337 6.777 310.005 118 82 10
-284.092 28.8321 309.463 113 80 8
-225.578 24.2659 322.898 115 77 4
-244.223 -9.42794 296.552 111 73 3
-244.33 18.9736 311.031 103 66 5
-285.596 1.89715 304.908 100 66 0
-233.758 31.6346 298.598 103 66 1
-224.517 19.7362 318.829 105 69 6
-277.962 50.6807 281.508 114 80 19
-288.619 39.7795 307.323 104 73 9
-236.035 26.3959 311.485 77 56 5
-282.778 39.6384 316.448 118 86 16
-271.815 0.236758 278.114 120 86 27
-251.014 39.7758 280.001 115 78 6
-241.236 -14.2113 305.479 107 73 14
-277.185 -15.848 282.938 114 76 14
-239.758 78.8421 287.506 129 96 39
-285.871 33.2598 286.849 93 65 1
-245.639 23.9903 314.525 91 58 10
-263.636 80.7907 277.428 124 87 30
-273.136 46.3395 319.092 118 83 22
-285.646 26.0726 282.542 107 68 0
-233.164 25.0539 320.443 113 76 6
-250.573 64.4822 290.526 125 91 9
-276.893 67.5189 279.63 107 77 20
-224.01 78.4798 307.21 110 77 17
-238.909 57.0754 291.421 101 65 0
-284.307 7.01891 298.161 112 74 4
-224.465 49.8928 299.476 116 78 15
-290.843 69.4754 317.457 110 82 21
-276.451 59.1914 300.302 95 70 18
-297.991 72.3941 308.402 127 93 34
-272.675 69.4238 309.403 107 77 12
-283.73 57.4891 299.189 113 82 11
-249.489 -5.13703 284.522 105 70 2
-278.028 -8.72161 307.412 133 98 38
-280.714 1.19846 282.596 113 75 12
-219.625 30.8628 325.716 107 70 0
-252.783 42.5319 278.01 115 74 2
-258.706 57.8753 291.901 99 66 7
-245.134 6.79391 309.862 114 75 0
-246.085 -13.1683 295.558 106 73 14
-250.921 63.1003 331.401 116 85 24
-296.45 72.3172 302.691 109 79 19
-250.405 2.10991 280.512 109 71 11
-251.65 46.2847 283.047 104 70 3
-286.776 31.3271 285.395 95 62 0
-266.136 -4.33808 279.045 93 63 13
-241.4 8.31443 305.625 106 72 6
-231.713 48.7139 290.159 106 66 2
-283.553 -3.76124 308.324 100 70 10
-221.694 45.2794 305.719 84 55 5
-278.303 -12.456 284.825 103 73 10
-214.474 58.6678 321.367 109 69 1
-249.816 35.8707 281.491 123 83 29
-244.559 50.6319 331.757 99 64 9
-264.829 58.2853 307.55 117 83 19
-241.251 68.1342 334.354 133 100 43
-275.841 79.7444 281.061 106 72 19
-245.351 19.4979 283.737 111 66 2
-222.589 61.7815 329.28 124 90 22
-285.646 22.5215 298.325 106 73 7
-248.593 7.22064 310.741 111 71 10
-286.552 24.1827 290.082 105 71 0
-228.699 30.5545 324.557 115 78 9
-267.577 19.2745 319.172 100 65 3
-285.283 23.0287 296.71 108 77 12
-239.826 15.8338 294.467 99 58 1
-272.322 54.8385 295.658 122 88 29
-279.435 50.1869 319.061 83 58 6
-255.668 2.12447 316.252 98 63 2
-276.62 73.8018 272.194 107 74 14
-237.73 30.3865 316.483 107 69 6
-256.896 17.9491 275.44 107 67 0
-278.418 -6.6711 286.801 115 78 13
-224.542 36.4593 307.699 88 54 2
-214.087 57.0259 328.968 121 86 17
-269.16 56.9857 295.183 115 79 22
-282.203 9.55097 287.73 113 77 13
-252.139 56.333 328.168 104 72 1
-285.859 64.1909 300.292 117 85 21
-239.172 81.3141 298.164 133 103 45
-271.962 21.8895 317.128 111 75 11
-242.941 47.585 290.077 116 74 3
-253.766 18.665 277 113 75 0
-270.069 0.041871 278.505 102 72 15
-254.576 50.3257 278.051 120 84 10
-225.797 77.8655 301.617 120 85 24
-263.837 62.7181 317.376 90 62 10
-285.712 35.2436 312.248 116 82 15
-280.148 6.0006 278.805 111 76 15
-273.156 17.2411 318.119 107 69 0
-269.447 57.0634 313.385 100 69 12
-286.359 28.419 291.82 101 70 1
-228.957 53.9747 331.936 101 66 0
-263.269 47.853 272.942 96 66 11
-262.105 25.1276 275.089 112 74 9
-239.415 23.7343 308.39 70 42 2
-294.443 66.1504 308.166 115 80 2
-243.282 -14.4887 294.79 107 68 7
-243.226 5.83219 289.546 96 63 7
-247.74 -1.00894 310.128 120 83 7
-270.762 43.0578 318.804 116 81 23
-243.473 4.16566 308.213 114 74 3
-247.971 77.9552 327.872 132 100 45
-231.761 12.1714 312.614 75 45 0
-250.125 50.301 289.586 98 62 2
-252.514 64.1497 330.497 124 90 22
-279.91 -15.6535 285.301 118 84 23
-221.836 22.2447 316.985 98 67 1
-241.511 81.5398 291.863 134 103 39
-216.427 63.0845 326.292 130 93 26
-238.054 61.6047 334.844 122 88 32
-264.505 61.5055 294.315 113 77 18
-272 65.9556 305.771 119 84 24
-278.13 -8.0511 287.509 119 86 27
-276.393 35.6476 276.21 114 78 22
-275.446 74.2392 312.382 102 75 19
-281.118 72.8963 278.038 112 82 14
-245.585 -5.19284 290.697 104 67 9
-285.566 2.37787 305.982 97 64 1
-255.801 77.2647 329.904 135 104 45
-272.956 58.229 276.643 113 79 9
-260.965 27.8333 318.859 110 77 9
-278.477 34.8171 280.054 110 75 14
-240.274 22.1373 308.316 85 53 3
-214.951 33.9648 323.355 112 77 11
-285.658 25.9638 304.301 108 75 9
-267.51 -12.8897 314.458 134 94 29
-271.073 55.8814 298.18 117 85 29
-225.037 40.4523 327.47 110 74 1
-251.725 1.99475 279.695 105 71 12
-285.438 8.45134 311.226 116 81 7
-242.792 16.4826 309.819 106 71 1
-274.849 24.22 316.596 106 71 0
-230.951 31.2361 323.824 105 69 4
-279.31 43.0177 280.542 109 77 22
-242.183 78.3911 325.496 132 99 44
-230.872 76.9754 327.204 126 94 33
-282.614 -4.58221 307.888 98 70 5
-259.139 66.6157 276.771 116 77 15
-278.708 20.498 278.291 115 82 13
-281.704 55.5153 298.531 107 75 16
-241.109 7.40057 292.999 90 58 5
-232.854 29.6366 308.766 102 65 7
-250.379 65.4599 290.349 114 84 12
-243.078 -16.7186 306.545 115 78 9
-240.93 -12.026 302.296 111 75 13
-218.942 56.0148 301.696 106 72 1
-244.636 -2.9823 290.331 113 68 5
-275.849 65.1845 280.328 110 78 1
-216.757 56.436 321.876 89 55 0
-263.888 9.46917 275.082 97 62 1
-264.76 66.9166 292.391 102 73 8
-278.861 -14.2139 306.551 131 94 31
-251.657 40.5431 278.959 120 80 2
-275.368 70.0812 274.98 105 75 18
-249.242 26.1591 280.58 105 67 7
-265.066 49.1384 317.122 92 59 2
-269.294 59.0073 293.298 105 71 6
-247.912 49.6408 289.766 98 62 1
-245.017 -12.1938 309.67 116 83 9
-253.904 52.3485 329.443 107 74 18
-255.161 62.198 298.844 96 64 5
-237.945 76.4516 330.327 120 90 37
-258.666 41.69 273.555 122 84 12
-220.552 59.369 301.454 111 72 1
-272.704 71.7088 289.117 79 54 10
-287.794 30.1265 288.647 120 84 21
-276.625 16.2497 278.221 122 87 20
-279.752 49.9384 293.674 112 81 21
-237.249 77.2268 288.736 123 88 27
-240.945 20.4873 290.033 97 56 1
-278.634 69.3956 279.935 112 80 19
-247.032 -14.3651 311.919 121 85 13
-242.943 78.3716 324.828 129 96 42
-216.431 53.8669 321.273 86 50 2
-259.545 50.3836 273.463 111 77 8
-229.635 39.1714 300.694 88 57 6
-279.688 74.2002 273.557 112 82 22
-252.325 -7.78595 283.954 106 71 10
-235.374 61.0759 293.14 119 83 32
-285.922 27.9535 299.754 111 77 20
-279.457 50.4496 295.022 114 79 16
-256.387 57.0869 281.213 121 84 15
-224.334 55.7329 328.325 96 62 0
-250.303 17.2775 313.577 90 56 1
-213.678 61.5115 323.405 94 67 8
-220.68 46.8151 308.303 83 55 1
-266.976 30.8433 318.241 108 71 0
-282.281 47.0719 295.943 118 83 23
-261.069 22.6258 274.381 106 74 12
-261.608 20.663 274.822 110 72 12
-212.625 56.8387 322.934 99 61 0
-254.139 2.95044 314.719 100 67 2
-269.9 58.7957 302.742 122 86 25
-245.147 48.9637 290.088 103 68 2
-260.429 61.5212 291.601 90 63 7
-264.769 65.7289 323.733 112 78 27
-234.537 63.3441 292.189 121 79 4
-232.589 51.0024 333.394 105 69 3
-273.233 30.4027 275.248 107 75 8
-243.365 -8.69575 299.549 110 75 11
-260.296 77.0703 319.845 107 74 18
-274.004 79.1406 286.961 112 84 29
-276.442 65.2127 282.129 120 85 31
-276.649 70.7217 303.995 107 77 22
-259.799 -13.943 285.821 111 79 23
-252.163 17.1357 278.896 120 80 5
-285.994 57.5759 300.495 118 87 22
-268.934 58.9647 293.671 106 76 9
-274.862 7.91035 319.745 112 78 19
-284.34 8.02822 293.202 110 77 19
-220.176 29.3393 325.096 108 69 0
-219.758 33.918 326.475 100 66 2
-244.164 13.7884 285.267 107 70 1
-260.186 3.09009 277.216 109 73 3
-228.02 44.889 294.399 107 70 4
-220.722 51.3546 300.435 103 64 1
-246.287 63.3676 290.448 119 80 4
-230.44 22.0904 308.649 103 70 9
-247.7 -9.3175 308.758 122 81 8
-214.898 47.3993 319.101 101 64 0
-256.629 -15.3373 288.997 101 76 28
-221.586 75.529 314.442 103 72 8
-219.609 42.0021 312.025 107 70 3
-262.8 -20.6298 303.53 114 76 9
-279.546 -13.0111 300.267 125 93 21
-251.479 4.08007 279.385 101 67 7
-263.264 -20.9425 299.254 110 77 15
-267.282 -3.24749 279.155 89 62 1
-221.01 46.2338 308.251 76 49 2
-250.563 77.9919 291.067 90 60 15
-223.206 69.0072 298.039 117 80 15
-239.091 80.5225 308.882 125 95 23
-230.618 65.6764 291.981 121 84 13
-222.08 22.8348 315.625 88 60 2
-240.495 80.4475 288.965 130 98 39
-278.137 -9.20187 289.76 120 84 26
-222.032 42.8474 328.298 108 71 0
-241.783 17.7921 291.21 111 71 1
-280.544 -15.5672 292.684 116 80 10
-250.384 -8.86756 310.264 99 63 2
-219.337 67.516 303.589 108 71 11
-247.017 -6.82285 310.166 118 76 2
-238.86 55.5748 335.502 113 77 19
-283.181 52.3622 316.548 101 70 8
-274.753 -19.2357 286.149 117 79 19
-259.043 41.6826 273.35 122 84 10
-281.119 -8.82369 301.423 113 81 20
-251.338 78.1913 308.61 109 78 22
-284.323 17.4262 303.778 110 80 18
-264.124 6.79774 276.241 91 58 0
-250.39 -16.1061 297.662 109 76 18
-276.315 21.3787 277.979 114 83 23
-256.745 5.55532 314.384 97 60 2
-219.689 39.1178 312.049 91 56 1
-253.996 35.9448 277.075 126 87 27
-232.13 60.6499 293.538 107 70 10
-281.941 75.042 283.946 80 56 6
-275.55 24.4564 278.476 119 85 18
-269.14 55.9864 313.827 101 70 8
-285.516 18.1349 295.484 92 60 0
-288.966 46.8178 307.866 105 76 12
-252.458 21.2554 317.398 105 68 1
-243.747 -9.388 297.368 114 78 9
-272.98 66.2022 312.408 100 73 19
-258.463 57.295 292.431 101 67 6
-240.745 12.3063 291.537 108 68 1
-267.336 39.8317 271.807 117 84 17
-226.943 24.3917 308.785 99 63 0
-288.783 76.9351 301.509 104 77 27
-224.027 65.4494 329.365 115 84 23
-246.827 2.75197 284.218 106 71 2
-280.164 -15.4478 294.031 115 82 20
-252.344 0.400381 312.297 107 70 8
-225.333 62.4303 330.615 111 77 17
-257.433 57.6054 321.667 121 87 25
-252.772 61.9249 330.028 125 90 23
-271.671 56.9225 300.257 109 78 14
-243.519 43.7417 332.348 107 70 3
-289.392 70.4975 299.127 99 72 4
-248.365 9.56819 310.68 109 71 4
-285.516 19.8248 295.728 107 71 8
-253.021 -5.76216 312.241 118 81 11
-230.58 12.4623 317.17 108 71 11
-258.525 77.5004 328.14 137 108 48
-246.557 0.236714 285.671 107 70 7
-283.926 30.1397 281.798 107 73 2
-285.384 18.7492 285.978 107 70 2
-279.826 79.0805 283.932 119 85 24
-266.817 57.3062 299.299 119 85 24
-245.259 54.2656 334.232 125 90 35
-265.775 2.38847 323.508 96 66 6
-267.127 -12.5837 315.089 136 97 25
-285.244 76.8559 313.923 109 77 17
-247.851 24.1127 283.983 116 78 4
-239.877 35.8341 321.12 108 73 14
-281.409 3.40946 297.887 106 67 0
-219.708 37.2587 310.471 107 70 1
-241.512 9.76569 305.585 110 75 4
-284.83 17.2549 282.789 101 73 20
-246.963 59.7629 293.157 121 84 15
-233.612 75.1833 330.137 114 84 26
-248.545 -15.5564 312.241 129 88 9
-250.14 62.865 331.981 122 91 33
-279.688 12.7397 278.354 120 89 28
-255.233 40.4821 276.29 120 83 16
-257.766 78.1014 320.948 121 89 33
-286.492 63.3537 301.199 114 83 21
-249.519 78.932 303.891 110 79 26
-271.18 64.4493 310.385 99 72 20
-234.157 21.8621 309.549 78 49 0
-252.746 67.2988 295.01 79 47 2
-231.702 53.1283 289.803 107 67 3
-262.236 -5.15755 278.872 107 76 6
-219.584 27.5773 315.401 97 68 9
-259.136 57.7307 294.268 112 77 7
-261.14 -0.944357 321.802 101 64 3
-253.26 69.9344 302.417 89 61 2
-275.121 24.7953 316.445 107 73 3
-217.28 63.0778 307.941 97 63 1
-283.348 15.0121 308.402 111 78 9
-277.225 77.6942 269.098 107 76 18
-231.256 63.7666 333.792 117 83 23
-275.094 -8.67573 319.768 72 45 2
-279.719 71.281 285.23 88 61 3
-246.838 64.3233 290.453 125 90 16
-268.035 -4.67852 321.063 90 62 19
-225.148 80.6004 313.412 121 81 19
-259.62 11.8774 317.1 101 65 2
-260.647 -10.8459 315.293 114 76 3
-234.929 71.187 289.308 120 84 12
-276.478 -10.3479 284.722 114 81 21
-226.628 26.5558 324.543 112 73 5
-233.588 76.2432 289.039 117 78 1
-268.687 65.9425 291.619 88 62 9
-266.035 74.1075 324.305 111 83 25
-280.744 19.9893 310.853 119 83 13
-234.325 80.0646 311.173 94 72 16
-218.063 50.1048 319.118 100 63 0
-232.37 66.5968 291.225 114 77 2
-225.544 80.8043 315.183 117 86 19
-256.971 3.05736 278.577 87 61 10
-286.163 0.939574 308.461 116 82 21
-238.671 79.3108 288.459 126 93 37
-224.321 26.4374 310.096 100 67 8
-278.221 49.358 285.908 110 78 16
-259.14 59.7011 322.481 103 69 10
-283.488 6.26212 290.038 109 74 9
-256.043 71.7613 309.883 89 61 1
-249.112 -9.84502 309.664 107 69 3
-231.381 63.0241 292.961 122 79 2
-237.681 24.924 306.146 76 45 9
-226.191 64.8253 292.892 100 63 2
-266.868 -20.9322 300.259 115 80 14
-222.762 27.5473 311.011 97 61 0
-245.528 51.5025 332.195 97 67 2
-268.095 -12.2285 313.699 124 87 18
-276.021 3.97652 321.169 114 76 13
-250.856 45.2104 283.401 105 70 3
-287.055 32.8327 300.707 117 84 21
-275.318 46.7488 319.12 118 82 33
-229.233 28.4158 308.715 102 65 5
-217.59 43.3961 328.813 108 70 1
-278.862 29.6872 316.002 115 77 10
-240.731 34.3032 289.269 108 72 2
-276.222 -8.74132 320.313 73 48 3
-263.483 48.2154 272.993 101 68 12
-277.963 51.6231 284.222 109 78 14
-237.022 27.3686 314.077 109 76 13
-258.6 55.1084 275.775 114 78 13
-269.661 31.4471 317.422 115 75 13
-240.283 58.958 336.881 105 74 15
-251.168 78.2688 320.173 111 83 27
-265.761 -20.9682 299.506 113 77 14
-253.908 38.7226 277.757 122 85 24
-221.418 54.7539 324.631 95 61 0
-253.536 41.4108 327.301 112 73 9
-255.577 54.3029 280.878 107 72 9
-264.698 18.5852 274.972 106 70 0
-290.942 76.9933 301.606 120 93 33
-252.475 59.8902 293.675 110 76 5
-262.213 58.8239 308.026 109 75 21
-258.611 67.6264 279.287 117 82 21
-243.409 10.0576 308.755 113 76 7
-221.345 65.8316 300.425 112 80 8
-267.98 60.1598 308.459 107 77 15
-226.951 40.7254 304.31 86 57 4
-270.652 -20.3246 302.612 118 82 24
-285.769 40.2536 294.928 113 78 23
-220.928 73.215 318.451 107 76 18
-276.248 80.0059 280.269 118 85 24
-264.759 17.5699 274.928 110 74 17
-278.005 71.718 274.885 114 81 16
-271.989 3.59227 278.593 126 90 28
-286.372 40.5216 312.801 107 77 18
-269.915 70.8126 290.432 83 57 6
-256.702 66.4695 330.594 111 78 15
-272.34 60.5179 314.409 107 76 14
-260.651 1.19849 321.58 106 70 14
-256.053 54.043 277.697 113 76 15
-285.579 33.6364 286.372 104 70 3
-245.176 54.2955 334.365 128 91 32
-275.415 53.7103 289.877 107 72 6
-250.437 78.216 320.684 118 85 33
-279.45 71.5778 276.281 95 71 18
-272.088 30.6511 274.552 105 71 2
-274.636 54.5267 290.704 103 71 2
-265.691 46.6256 272.578 114 78 11
-270.808 81.2827 273.928 122 86 19
-278.688 47.971 281.364 113 80 22
-217.814 53.3581 308.321 92 58 1
-245.913 28.2464 317.715 95 59 2
-260.831 69.123 288.289 92 63 2
-254.46 51.6969 282.601 116 79 10
-277.456 -10.4694 287.877 121 87 29
-242.426 -3.74804 294.133 96 66 12
-242.988 -4.35874 299.65 89 58 0
-277.165 53.2224 318.767 112 80 23
-244.372 80.9839 289.121 133 101 41
-267.815 22.4879 318.169 105 71 5
-274.274 3.80054 277.747 107 78 19
-261.866 20.8661 318.886 108 68 1
-249.877 -14.9268 312.709 127 86 12
-253.086 60.3195 293.982 92 63 0
-267.26 46.8862 272.684 112 79 13
-214.572 55.17 329.86 121 86 1
-226.294 17.0015 310.781 99 64 0
-242.787 -4.11261 293.997 95 62 9
-275.978 -17.5449 304.789 119 87 29
-242.908 1.41591 305.176 114 79 4
-229.337 54.6211 332.404 103 68 10
-275.813 20.7636 278.024 125 88 28
-214.707 33.2564 321.151 101 67 3
-234.395 19.5193 310.243 74 48 0
-283.508 0.581681 295.734 106 69 4
-255.359 13.1366 276.87 101 65 1
-278.186 6.01769 318.922 105 71 11
-251.969 39.6822 326.331 103 65 9
-262.675 73.1961 318.779 88 58 7
-240.637 18.3523 308.291 90 62 2
-286.881 30.2797 292.437 116 81 23
-219.014 70.0209 311.461 98 65 3
-255.667 2.96641 278.5 93 62 1
-249.468 52.7968 331.529 99 70 8
-265.006 -17.8622 310.903 99 69 16
-273.568 3.01736 278.032 118 83 16
-254.2 -2.52634 313.028 123 82 6
-248.822 -16.5289 299.344 98 71 16
-271.866 12.1354 320.036 102 67 2
-218.901 49.6905 318.235 109 71 3
-282.699 73.4 282.996 99 71 11
-231.059 73.537 329.919 114 84 28
-254.552 -0.705537 279.915 113 80 19
-257.247 -0.655394 279.996 103 71 13
-233.318 17.9886 309.994 94 58 0
-252.384 -10.7197 286.653 109 76 17
-282.81 46.3649 294.82 111 78 20
-261.664 39.6952 320.596 102 67 2
-283.992 66.1036 319.506 109 77 20
-225.302 80.4203 309.658 119 87 24
-243.336 -4.63121 296.756 88 59 12
-270.523 47.8656 317.419 117 81 17
-222.553 39.5019 307.862 104 64 1
-235.771 73.2899 331.973 123 90 32
-285.433 59.3172 300.436 117 87 22
-280.221 -10.7409 301.309 108 79 18
-266.721 38.4578 318.266 107 71 5
-277.227 -8.11529 312.424 93 69 4
-260.08 62.7725 325.238 111 77 17
-226.881 57.3545 293.142 108 70 2
-264.816 25.9014 319.238 98 61 1
-252.136 24.9214 319.534 110 70 1
-283.837 33.676 314.092 120 88 31
-263.905 -4.06071 319.879 100 64 4
-293.445 69.9522 316.243 108 81 19
-241.855 79.017 320.631 129 98 37
-268.6 66.3181 291.579 91 62 4
-260.715 64.5811 274.289 118 86 20
-249.151 18.4385 280.528 106 69 1
-286.121 75.5069 301.226 99 72 15
-275.289 -15.8018 307.481 122 90 23
-272.316 22.5349 278.405 115 81 13
-278.473 -10.2066 290.339 114 78 13
-238.659 22.8344 303.842 92 57 8
-244.139 15.1604 309.616 116 78 16
-248.054 20.2596 281.313 113 73 1
-263.324 -4.32116 278.31 102 72 11
-239.756 16.0659 294.283 100 60 0
-275.328 49.7042 276.558 109 78 6
-237.873 80.6686 304.968 130 98 35
-274.314 26.6798 316.042 108 72 1
-251.671 76.8011 305.981 101 72 13
-257.462 -2.97205 280.183 104 71 10
-260.032 18.9405 316.776 119 79 13
-287.929 69.5268 317.852 114 83 24
-233.031 53.0184 334.288 104 66 2
-258.063 -13.6731 314.988 124 82 13
-245.108 80.7692 288.478 133 100 43
-288.463 39.8464 307.71 105 75 14
-279.864 -0.128464 281.401 98 65 3
-287.012 34.7067 291.629 111 78 17
-267.748 60.3264 307.491 123 89 31
-221.092 59.597 296.634 108 68 1
-248.759 29.7633 281.302 115 76 3
-264.005 -12.1714 282.49 107 76 15
-289.191 43.3227 306.028 123 87 21
-238.484 70.2302 333.848 123 93 33
-270.419 -18.1683 283.76 111 74 7
-253.698 78.4465 316.373 113 83 28
-281.567 24.926 280.124 109 75 8
-252.339 71.6772 301.167 89 58 5
-254.529 51.699 282.147 113 77 18
-229.475 57.3355 291.646 97 61 0
-228.298 34.5946 308.533 85 53 2
-251.985 24.7868 319.55 112 76 18
-266.157 40.1795 318.643 102 66 0
-247.632 22.5268 283.118 120 79 9
-260.13 60.1095 305.227 104 72 4
-219.955 28.3151 323.909 108 69 3
-243.398 40.3109 329.409 96 59 2
-247.132 57.3292 331.031 115 84 19
-276.863 81.0168 272.469 119 93 37
-229.622 10.8436 312.227 87 54 0
-243.289 -7.60836 302.599 115 79 10
-254.699 68.2323 331.75 131 96 41
-263.62 52.1795 273.884 111 76 12
-245.99 66.1895 333.376 129 96 41
-247.82 4.01283 309.857 113 78 10
-245.945 -7.88044 307.876 120 80 12
-288.708 41.1976 300.672 127 92 30
-234.323 36.2283 295.707 107 69 1
-251.066 48.392 331.144 100 67 0
-275.928 31.0379 277.316 111 77 10
-264.949 68.9754 326.425 111 77 17
-274.962 46.5054 319.023 118 84 28
-266.332 27.9083 317.87 115 75 1
-256.456 30.6796 320.235 113 78 23
-230.689 66.2839 332.882 117 84 25
-247.198 20.6283 313.121 109 71 3
-293.884 66.9143 313.595 109 80 19
-277.415 40.1859 318.064 91 62 4
-264.56 63.2483 320.039 100 69 17
-245.247 81.1673 294.264 130 100 42
-236.043 65.3865 334.917 128 95 36
-220.398 36.984 327.806 115 72 0
-280.681 30.3822 280.414 105 71 1
-283.822 2.06234 300.789 93 60 0
-277.341 2.72068 320.426 127 89 25
-238.625 42.887 330.73 97 59 2
-233.398 19.0064 309.676 93 61 2
-259.905 -9.8606 315.292 109 70 12
-261.095 -10.8889 315.585 115 77 3
-293.493 66.3432 312.874 111 79 16
-218.012 54.012 303.32 107 71 1
-294.663 69.0004 314.988 119 89 34
-213.801 39.7002 319.326 98 60 0
-275.381 0.119363 277.75 127 90 33
-231.112 48.4336 331.055 93 58 1
-234.545 15.4365 313.394 84 57 3
-241.897 23.6451 286.693 110 70 1
-265.929 78.2887 274.021 114 81 27
-238.337 78.9534 288.505 116 81 16
-252.737 56.1387 293.995 102 65 2
-297.951 73.3259 309.284 125 93 21
-286.397 18.2775 292.397 98 63 0
-286.995 35.5989 293.744 108 76 17
-269.128 33.3608 272.335 112 80 20
-282.662 0.653308 290.769 103 67 0
-281.869 3.31991 299.65 101 64 0
-249.156 78.8208 286.641 119 84 22
-233.727 15.1981 312.075 73 49 2
-262.532 64.815 325.211 113 79 11
-268.994 6.76121 323.294 109 68 2
-277.817 51.4572 293.398 111 78 21
-214.357 51.2926 329.275 125 87 23
-271.999 45.2732 273.389 105 73 12
-274.692 79.8534 285.518 124 94 31
-274.962 62.5911 316.091 111 79 21
-237.49 80.5235 290.506 127 93 33
-237.192 78.0433 288.996 125 88 27
-243.463 2.64111 306.992 109 72 6
-231.87 31.626 308.532 101 67 6
-246.419 46.9616 331.089 101 67 0
-279.265 14.1096 315.791 108 69 7
-281.694 -6.2178 314.635 85 59 11
-273.159 35.6746 317.774 103 70 9
-268.446 21.5068 317.755 103 71 2
-248.275 -3.61154 284.563 118 81 17
-277.195 50.2967 279.239 94 65 6
-223.545 29.8355 325.993 106 66 1
-256.521 55.8484 321.694 115 79 13
-262.21 -3.07944 320.754 87 56 3
-243.72 59.6766 293.052 125 85 18
-263.103 29.5262 273.312 110 77 3
-266.481 13.1173 275.134 91 57 0
-222.203 44.6285 327.603 104 66 4
-248.978 28.6861 280.996 110 75 6
-258.483 4.33498 277.418 97 64 0
-288.322 73.1769 318.057 102 77 26
-228.431 48.9066 292.039 120 78 5
-281.933 62.2705 319.608 119 86 30
-282.047 -4.20657 318.312 115 83 12
-254.054 71.3654 305.706 91 62 8
-250.544 45.7563 284.599 107 73 8
-239.994 9.6165 296.912 105 66 0
-260.69 78.5928 279.864 104 71 13
-271.305 -20.3385 296.892 113 80 22
-259.236 8.22106 316.843 103 67 7
-241.582 -11.4222 298.445 103 66 0
-252.46 -16.9738 311.18 108 72 2
-255.713 -3.56584 280.894 101 68 7
-267.877 -11.2386 313.933 133 96 28
-233.409 29.902 321.034 109 71 4
-222.052 49.4742 327.107 115 78 8
-268.448 76.2971 289.848 98 70 13
-253.282 18.9236 277.914 116 77 5
-280.549 72.0738 284.793 87 60 2
-255.466 -16.3644 291.008 110 73 23
-280.174 2.95086 286.994 112 77 20
-293.018 69.939 316.468 106 78 19
-224.291 51.0928 326.809 101 65 4
-264.073 50.7914 316.963 95 65 7
-235.065 38.2336 294.33 113 75 13
-260.098 59.5542 303.539 112 78 14
-239.337 39.8813 290.136 116 75 2
-277.88 54.6958 298.421 95 68 13
-255.394 5.62522 313.902 109 73 6
-275.142 74.4284 270.213 99 69 8
-264.352 62.9177 321.172 109 75 10
-236.469 59.8106 292.912 108 73 10
-228.404 22.2735 321.422 96 64 5
-239.895 18.4111 293.89 98 62 0
-264.291 63.0168 318.88 93 64 8
-273.054 61.4982 276.906 114 83 27
-259.121 61.823 277.106 125 89 18
-246.54 10.7645 283.065 105 67 2
-263.337 55.6535 274.612 115 80 23
-256.255 -8.60048 283.19 106 71 10
-271.456 -20.3711 298.656 115 80 24
-261.975 66.5648 327.016 117 84 22
-274.445 53.853 293.582 116 85 29
-287.72 50.9041 300.461 116 83 18
-270.053 81.0249 277.506 118 87 28
-262.522 12.5228 318.202 99 63 1
-214.61 40.9933 317.964 100 62 0
-244.577 42.158 331.28 103 67 2
-216.883 58.1454 330.08 115 81 16
-225.945 19.6346 310.461 101 67 4
-289.508 62.923 305.091 111 78 17
-254.451 28.997 319.49 115 78 9
-245.203 25.87 315.727 90 60 9
-262.166 59.2902 319.329 121 82 23
-278.095 38.0874 278.21 106 71 0
-263.034 74.573 319.956 92 62 12
-220.596 56.8078 301.332 102 66 1
-262.775 56.4306 274.529 116 84 31
-259.128 54.6024 318.695 105 70 7
-271.432 64.4422 310.832 99 71 20
-240.03 72.2539 333.19 123 93 33
-266.599 71.3188 324.534 106 79 20
-259.612 48.6733 321.545 114 79 11
-286.736 57.1588 301.336 117 83 27
-245.295 33.0639 285.016 112 75 4
-251.955 -5.82741 283.245 107 74 12
-242.254 5.03766 306.76 103 69 7
-228.624 27.5208 323.473 111 72 3
-277.164 59.6571 318.079 123 91 38
-263.802 -5.18067 318.27 101 67 11
-256.969 43.971 326.267 118 79 8
-251.642 32.0315 280.095 101 67 1
-230.608 71.5236 292.813 119 83 23
-283.655 14.6328 288.614 99 68 7
-286.252 21.4037 284.6 117 85 22
-272.392 -7.59648 319.954 78 52 9
-273.036 18.7403 277.84 104 72 6
-248.705 -17.0808 311.39 111 74 11
-253.448 59.7425 294.537 91 58 0
-230.279 76.3294 295.139 110 79 7
-245.458 7.27203 286.338 107 70 5
-239.182 31.8015 318.198 105 67 3
-241.698 19.9148 288.715 100 62 1
-223.831 54.5015 297.737 106 69 1
-253.369 29.3876 279.176 105 70 6
-270.842 10.0142 321.389 108 70 12
-258.288 -14.2095 286.69 103 73 18
-246.778 45.1197 287.156 101 65 3
-260.332 -16.8686 312.254 103 70 11
-227.781 46.3381 327.326 103 65 1
-247.268 4.79049 282.531 106 69 3
-281.848 41.7642 284.32 106 73 6
-275.366 38.699 318.594 119 82 17
-248.214 80.1321 298.236 117 86 28
-276.688 -9.9208 308.77 128 91 26
-219.05 57.2336 320.341 94 58 0
-283.944 13.4077 294.702 106 71 11
-262.863 60.1684 315.209 100 67 11
-283.182 11.7556 291.639 110 78 14
-231.829 51.2107 332.992 99 63 1
-219.512 25.2592 317.8 97 63 1
-226.161 41.2864 301.902 85 51 1
-278.041 22.7463 278.706 113 77 10
-267.582 23.2757 318.303 110 74 1
-259.994 33.4313 319.742 105 69 1
-255.201 19.5213 317.777 113 75 11
-214.187 60.1753 327.321 125 91 27
-254.226 -18.9523 303.824 108 74 6
-257.006 21.0074 275.921 106 70 6
-278.436 62.4122 300.618 90 67 16
-285.444 69.8031 299.869 95 69 4
-294.418 76.3028 302.483 126 94 33
-294.59 67.3033 312.532 120 88 31
-214.391 34.1443 321.443 98 66 1
-252.986 25.7692 319.647 100 65 3
-276.124 57.7737 317.89 121 89 29
-265.551 55.3135 311.54 99 70 13
-240.306 78.0659 328.371 127 94 39
-284.425 12.5284 308.959 104 73 11
-222.004 36.5391 308.927 99 62 1
-275.391 73.1814 271.434 104 74 14
-285.063 15.3183 293.996 102 68 0
-229.263 65.1988 292.498 106 70 0
-240.029 64.5812 290.59 118 79 2
-228.235 24.1217 323.015 110 70 2
-266.322 73.5958 290.814 101 70 13
-282.451 27.1035 280.63 110 76 16
-226.71 39.3934 306.332 80 50 1
-272.937 63.7793 276.734 120 87 33
-251.727 65.2175 290.832 123 91 7
-274.53 43.8618 319.092 111 76 13
-223.598 63.522 294.261 98 64 2
-247.915 -8.72166 289.494 101 70 18
-256.936 68.9193 331.098 98 69 8
-267.754 -16.5449 280.554 107 68 2
-261.091 59.7592 275.342 116 81 11
-273.765 22.3194 316.982 106 69 1
-245.154 79.6078 312.435 115 88 32
-262.464 37.7049 272.4 114 80 17
-280.186 4.05434 318.334 127 89 29
-243.33 37.3836 287.852 110 73 3
-233.852 28.0788 320.895 110 72 5
-284.498 29.2939 308.968 107 74 13
-233.541 79.4138 321.818 134 104 48
-294.977 67.813 307.306 111 80 21
-219.268 65.9096 302.569 110 75 4
-275.682 -6.76711 280.317 102 72 15
-290.977 65.1687 314.406 112 82 23
-258.197 65.3896 283.423 104 69 1
-265.777 3.04699 276.034 103 68 4
-257.624 -9.39117 283.386 110 76 20
-265.609 67.7678 321.185 90 60 13
-275.106 67.904 303.943 108 78 20
-220.542 38.5591 309.376 102 65 1
-271.601 23.9103 278.03 107 77 12
-223.985 70.3245 297.452 117 80 5
-242.741 56.2919 292.615 103 69 4
-250.062 71.9022 332.878 131 99 48
-240.16 80.2509 288.763 132 97 36
-251.93 70.4768 296.715 82 52 7
-267.119 47.4591 272.758 110 79 21
-257.982 -19.9631 297.26 97 66 7
-233.074 32.8272 299.275 103 64 1
-248.252 -14.3922 296.091 108 75 14
-232.828 30.8905 307.875 81 51 3
-250.648 62.0418 331.131 127 93 34
-283.371 15.5193 281.398 117 80 29
-265.294 7.35503 276.482 89 57 0
-255.947 -0.647983 315.944 94 56 2
-240.105 35.6386 290.032 109 71 1
-278.581 73.9601 272.759 113 79 11
-247.868 7.36798 281.101 110 72 3
-246.354 60.2535 334.488 120 86 26
-275.991 75.7942 311.893 108 79 26
-281.139 -6.03219 305.394 118 84 13
-239.873 49.5677 289.277 111 75 4
-285.969 26.6293 283.421 99 66 0
-226.508 50.068 293.597 111 76 9
-214.658 56.3963 321.355 98 60 1
-227.725 17.7115 309.499 103 68 9
-251.853 70.5677 294.983 78 48 4
-284.196 9.53273 293.182 109 74 7
-281.5 13.1551 312.847 112 79 7
-276.263 75.1083 287.286 82 59 3
-258.401 -11.0067 314.707 124 84 4
-218.834 55.414 316.115 85 55 1
-286.073 40.0101 290.818 116 83 23
-250.262 75.6239 286.804 111 81 23
-286.92 27.1524 290.793 106 70 0
-242.176 25.5256 287.439 103 64 1
-234.45 65.2017 291.56 113 73 11
-239.299 26.8056 313.214 89 60 11
-252.672 -8.63663 284.089 114 80 16
-251.358 32.1329 320.651 114 80 14
-239.931 9.04186 294.131 105 67 13
-241.186 -13.3394 305.232 113 80 7
-268.552 -7.54272 316.272 95 68 27
-213.047 40.8278 322.808 104 68 7
-284.91 42.6436 294.173 106 77 17
-273.798 18.6148 317.924 107 68 0
-265.983 19.5524 274.821 99 63 0
-247.084 9.39499 281.543 112 73 7
-251.86 -14.1888 291.925 94 70 23
-251.911 48.1036 285.902 115 77 4
-262.464 18.5945 318.498 106 66 1
-216.771 61.0288 328.871 137 97 25
-258.455 66.8496 329.381 122 89 33
-235.861 47.9706 289.154 113 73 2
-254.73 60.4272 296.318 91 59 0
-239.327 76.3797 286.607 116 82 12
-233.293 69.8743 332.796 120 89 23
-249.228 51.6112 290.987 96 62 2
-256.651 63.4566 327.767 120 83 21
-262.752 15.3811 317.96 107 71 1
-213.006 42.0645 323.571 104 69 5
-217.864 58.3063 314.065 87 55 1
-247.004 13.3783 309.768 113 78 7
-271.31 55.9381 275.369 112 81 23
-253.62 59.6904 294.737 92 61 0
-262.161 6.39083 317.914 106 69 2
-226.183 22.3572 321.989 110 71 1
-244.307 56.8756 293.424 111 76 12
-229.344 13.328 310.601 102 67 1
-235.98 80.7884 309.68 120 91 27
-268.478 -3.39996 323.073 105 68 5
-222.269 44.6372 308.232 90 58 1
-219.944 45.8348 314.955 103 64 0
-239.535 53.3308 334.63 104 70 8
-279.765 -14.6686 298.05 105 72 11
-247.135 29.551 318.844 101 67 2
-271.027 34.6513 272.529 108 76 20
-224.559 43.5002 326.59 114 75 11
-242.375 62.9264 291.391 107 73 7
-262.467 -14.0643 316.402 120 79 7
-251.224 2.28036 279.713 109 72 10
-270.175 81.3088 276.386 121 89 30
-269.376 19.7004 277.308 101 66 6
-239.012 27.7349 314.291 95 64 7
-226.799 75.9131 298.114 118 80 18
-264.297 -16.2736 286.27 113 76 17
-248.821 42.7671 283.923 112 76 2
-222.429 24.578 312.615 71 44 0
-220.504 33.113 311.479 97 62 3
-224.232 24.7579 323.502 108 75 6
-245.606 54.7067 292.836 109 72 5
-232.418 78.6123 295.124 116 81 20
-262.87 28.5929 318.817 113 78 14
-280 49.9571 295.145 111 82 22
-290.361 69.1388 317.504 117 84 15
-254.753 17.5963 276.882 105 67 0
-236.648 33.2941 293.159 113 78 14
-275.347 12.4474 318.286 104 67 3
-214.834 34.9835 323.97 116 77 8
-254.255 37.3874 321.911 113 73 15
-280.524 1.72137 282.044 108 72 5
-249.332 44.9706 285.772 108 70 6
-278.458 -11.1961 289.389 107 76 10
-264.827 -20.8598 297.73 111 75 15
-284.29 10.5642 297.429 103 66 0
-242.848 8.54294 288.2 112 75 18
-272.547 17.0338 278.048 103 71 15
-287.351 54.3704 301.339 112 80 20
-246.769 38.4457 326.253 92 57 1
-243.843 11.5258 287.915 108 70 6
-273.553 28.6676 276.36 102 70 4
-223.841 78.7434 309.028 107 76 5
-243.273 65.89 289.759 121 82 11
-285.076 47.5696 297.281 121 87 29
-256.269 61.7821 300.662 102 68 0
-262.022 5.62477 318.033 94 59 2
-249.903 70.0829 287.871 117 87 11
-293.366 68.0234 315.492 116 87 31
-262.087 -20.8466 298.724 109 74 13
-271.82 -14.341 314.14 121 85 25
-286.434 76.7025 313.954 89 56 2
-248.286 52.11 331.906 101 70 14
-258.118 21.9286 317.987 117 78 8
-249.042 -9.60289 288.151 116 75 13
-242.883 18.011 290.482 111 73 11
-249.566 -8.23571 286.925 110 78 18
-235.588 54.5058 335.085 116 80 9
-279.33 -11.6456 306.24 124 92 28
-262.133 56.56 274.647 114 81 21
-240.923 6.3791 296.228 96 59 0
-246.332 80.7404 288.348 127 94 32
-259.546 29.3603 274.5 116 78 14
-243.176 6.45161 288.338 103 66 1
-264.41 73.2841 290.657 105 72 14
-242.382 -13.6344 294.965 106 71 4
-256.948 -18.2896 293.397 105 71 9
-274.961 -18.3801 303.167 121 87 30
-244.174 -6.37252 306.783 115 80 9
-236.556 79.0931 321.972 128 96 37
-249.936 18.6988 314.61 88 51 1
-259.724 58.6263 293.275 103 75 15
-247.228 53.0466 332.016 100 70 2
-269.116 34.4973 272.045 113 79 8
-270.5 -13.122 314.107 114 81 18
-221.695 45.1396 327.845 105 68 7
-271.914 4.82705 278.842 127 93 37
-288.663 52.2961 305.043 117 85 27
-275.62 59.0465 286.321 101 71 9
-273.849 2.68976 321.224 118 81 14
-282.922 14.8606 281.139 113 82 28
-243.274 6.0157 288.709 95 58 1
-257.821 60.1259 287.106 100 65 0
-258.547 67.7483 282.887 105 72 9
-261.138 68.5824 314.818 84 53 4
-269.013 59.7249 274.563 112 80 21
-260.932 59.6968 306.119 107 74 12
-274.59 58.8513 288.402 96 66 9
-289.652 74.7384 317.566 101 77 25
-219.012 25.9816 319.803 94 64 1
-259.891 50.5863 320.193 106 71 6
-295.167 68.0131 312.584 121 88 22
-264.252 27.4926 318.556 96 60 1
-297.028 71.1962 314.06 107 78 11
-256.832 61.1368 300.862 100 68 3
-287.764 53.5087 311.098 114 79 22
-280.318 -2.41748 288.101 116 83 20
-272.299 -19.7697 288.117 114 77 18
-248.711 28.2395 319.844 104 68 2
-275.929 -17.9274 284.63 116 79 15
-248.553 78.2024 321.218 118 88 34
-220.561 25.8373 322.566 105 67 5
-221.85 39.6591 328.275 108 71 1
-257.053 18.8904 275.311 103 67 1
-244.19 24.8585 314.417 101 62 2
-278.338 33.6309 317.39 111 77 4
-262.839 80.5372 277.899 119 83 20
-273.719 59.1946 277.808 115 86 23
-277.141 42.7394 276.475 109 79 24
-233.34 13.9408 312.893 73 48 2
-241.274 15.698 292.235 102 63 2
-250.377 21.3525 316.589 94 60 1
-240.634 60.2813 336.321 94 66 8
-217.938 58.5203 314.7 86 56 1
-246.485 66.4336 333.322 134 98 38
-259.49 56.4161 275.529 113 78 15
-240.448 19.5659 308.154 82 53 0
-264.802 5.97522 319.765 112 75 3
-267.305 80.9473 274.964 131 96 37
-246.342 67.8235 333.234 132 100 41
-251.871 56.7666 327.96 104 72 1
-225.575 36.0345 327.237 106 67 1
-258.054 9.75586 275.457 99 65 7
-277.89 52.3068 319.553 111 78 8
-260.063 -9.33298 281.092 111 74 12
-217.159 62.1583 308.333 101 66 2
-231.093 32.1331 324.85 104 68 3
-286.216 0.41485 310.847 116 78 9
-225.029 20.321 311.144 93 64 2
-236.972 40.5005 291.979 99 65 2
-230.5 36.1254 303.367 99 65 6
-244.468 69.6004 287.47 124 88 14
-235.615 38.3601 293.807 108 72 2
-252.823 31.429 320.508 116 81 25
-296.509 71.6689 302.939 107 76 14
-274.867 -18.0263 284.516 115 78 18
-273.003 13.9585 278.515 120 88 26
-219.935 56.309 324.888 81 53 5
-269.225 37.8499 317.916 119 78 20
-262.615 7.1711 319.084 107 68 2
-278.864 -0.802857 280.21 106 73 3
-236.172 27.4282 317.776 114 75 2
-269.061 -1.63019 278.889 98 68 20
-242.464 5.39482 290.832 95 60 1
-221.176 45.5664 328.115 105 67 0
-241.827 51.8012 290.155 108 68 0
-260.229 58.9311 301.264 116 85 26
-214.118 38.0477 318.954 99 62 0
-244.353 -7.89932 297.063 112 72 7
-263.861 55.513 312.262 106 71 2
-226.005 80.9703 314.458 126 98 28
-283.1 6.1123 289.303 108 74 12
-213.698 47.2032 320.166 102 66 0
-268.297 57.7147 301.215 111 78 17
-242.807 80.9254 298.788 130 99 42
-218.293 66.0096 323.859 131 94 36
-249.344 23.4529 317.687 95 59 1
-284.903 -2.71386 311.923 120 88 16
-249.947 31.0212 319.975 108 73 3
-245.321 -17.8496 301.95 107 71 6
-247.14 40.1452 284.169 109 72 3
-246.77 77.3573 286.868 123 87 21
-264.079 14.6298 274.171 106 72 17
-257.675 54.7316 320.232 109 73 9
-265.056 57.2455 274.45 115 82 18
