ply
format ascii 1.0
comment Created by Open3D
element vertex 1415
property double x
property double y
property double z
property uchar red
property uchar green
property uchar blue
end_header
71.6056 81.2087 585.466 119 79 8
25.1906 99.1473 625.706 99 68 6
44.4627 63.0951 568.326 99 67 1
41.719 121.581 579.851 127 98 35
7.28705 99.9023 628.032 111 77 11
1.88226 30.5028 564.956 101 62 1
-49.1435 69.3612 577.677 104 74 16
-48.0525 100.177 580.832 114 84 30
48.3909 33.4206 588.496 118 79 4
8.69736 33.3417 616.944 116 77 13
-22.7292 77.4924 637.149 114 82 22
43.6178 48.2274 571.782 87 57 1
57.6021 70.5741 590.67 117 83 14
58.7424 73.3248 590.462 118 78 4
14.9027 -6.26113 584.654 114 75 0
-12.3123 98.8257 622.131 99 72 19
54.1234 79.9724 577.227 92 58 0
-32.8657 79.6557 604.098 119 83 24
52.7925 113.216 595.338 114 84 25
8.88366 -7.30821 609.4 108 71 2
-24.8418 -14.2811 621.524 128 91 23
-37.0875 120.849 572.434 126 91 30
-51.9078 52.0938 605.358 105 72 2
27.02 52.9136 570.936 96 62 2
-16.9716 -21.0672 577.509 107 77 21
19.1137 50.9603 567.67 111 70 1
3.02043 43.2122 621.072 114 76 14
-17.1384 -28.5609 614.624 113 81 18
-31.5035 121.235 575.592 115 81 22
59.1801 84.7468 582.087 88 53 0
5.46554 7.92518 621.06 93 57 2
18.0874 27.6783 580.571 99 67 10
18.2093 42.9909 570.055 99 62 2
5.63762 88.4967 569.172 123 87 25
-9.84407 79.4901 632.513 118 84 24
14.45 119.907 590.744 125 93 32
22.6769 103.938 557.806 113 77 13
-45.4678 -20.5578 581.697 120 85 37
32.5307 83.0089 559.589 109 70 1
-46.4663 -3.4144 598.825 106 72 15
1.68499 25.2291 567.74 114 72 8
-27.2078 88.0181 637.021 121 89 33
-48.8835 110.128 598.101 86 61 3
10.7699 119.144 594.181 123 90 28
18.2717 -22.7257 588.917 118 81 17
15.9658 101.679 558.425 112 79 13
24.193 119.992 584.87 122 93 28
62.6624 73.4445 589.596 104 68 2
-33.8856 45.3048 565.413 114 79 18
14.7921 81.3705 618.034 106 72 9
-15.8102 108.778 637.996 129 94 41
51.5765 92.4485 613.341 124 89 29
-17.8818 -18.3293 620.649 130 92 25
55.7216 50.1534 593.139 105 67 2
-3.90777 -11.6831 621.672 103 72 20
61.1435 72.62 574.173 101 64 0
-51.0278 55.7343 577.926 114 81 28
43.7203 86.177 559.383 101 68 3
-42.0283 4.75482 578.661 103 70 8
4.23131 21.1752 620.298 108 71 1
8.68065 -27.3467 598.262 107 71 3
-6.14244 77.7297 575.096 94 60 4
-46.8783 121.21 582.879 101 76 16
24.2538 45.6003 604.617 110 70 5
-28.3191 6.33918 567.721 85 58 15
-5.21167 53.3223 564.222 113 77 3
-52.8676 7.65957 590.111 108 75 3
-50.3784 52.5172 578.231 114 81 22
67.4896 86.8095 576.495 101 64 0
-9.88499 -22.4316 577.745 114 78 15
5.95913 4.04927 628.191 105 70 3
-36.3293 37.4703 568.908 108 72 4
12.6646 62.9291 619.429 109 73 9
-39.9312 102.531 569.151 108 74 11
-45.1369 21.9252 610.512 104 69 2
43.2844 40.365 572.293 98 64 2
4.65699 101.686 562.457 108 73 6
20.6727 41.6525 610.203 109 72 1
-34.8537 8.11497 621.058 104 69 0
-4.18731 45.2291 563.759 112 75 3
-41.4351 100.873 569.952 114 82 18
8.70008 99.1968 561.974 114 77 4
-0.0419776 100.826 594.221 92 62 5
-21.8444 7.41698 635.051 107 70 0
5.75472 80.3932 561.762 109 72 7
0.654006 33.5466 563.618 104 66 1
-31.9091 20.62 565.614 104 68 0
-43.8563 -12.9294 593.75 120 84 21
-31.4032 1.20221 630.42 114 81 21
38.6249 114.06 616.088 117 87 36
14.5785 81.3333 617.931 105 71 9
-2.94852 74.7558 571.015 100 65 2
-55.2353 30.2289 593.394 109 76 3
8.38869 17.6448 613.004 103 67 3
-51.1427 69.5179 582.873 111 76 20
-47.3652 109.624 638.394 121 88 25
-51.281 106.547 596.33 109 78 20
-29.5218 -12.0898 621.042 119 85 16
32.2905 67.8695 558.869 101 63 1
8.67008 5.73055 575.314 105 71 2
14.4088 88.1655 619.091 119 80 25
-9.09165 84.0709 629.421 115 82 9
-48.7761 22.0237 585.931 122 87 15
-4.30746 26.7106 625.955 109 74 2
-27.5457 104.755 616.096 99 74 23
49.4147 36.1771 590.95 100 61 2
-28.2423 -5.74608 627.882 100 72 11
-8.82207 35.3447 627.756 103 67 1
15.9469 32.598 576.83 93 60 3
-37.2153 94.4655 631.966 111 77 20
16.9464 29.9095 579.526 103 66 18
-28.7763 5.98371 568.013 96 62 2
-12.8769 87.2745 594.324 125 91 28
12.1219 -25.6319 581.505 113 80 19
-26.4392 69.4873 636.613 112 84 27
47.241 71.1831 571.379 99 60 1
-32.4876 81.4411 611.259 97 69 21
24.3988 41.9166 577.413 80 54 5
-50.3619 33.1444 610.071 102 64 1
6.28704 9.27893 570.492 82 47 3
54.949 65.2851 592.626 113 74 4
-24.0839 94.9291 594.117 102 70 12
-36.9618 70.7891 631.085 114 82 22
-28.5311 -25.6368 615.072 118 81 21
-44.0804 27.0591 614.667 93 63 3
-46.6792 80.9626 578.19 112 78 12
-20.5566 -26.9408 585.587 101 74 23
-2.60517 -10.3223 627.057 75 52 8
11.2223 84.2763 616.077 121 87 25
7.9724 44.2949 565.251 113 74 1
-42.3237 5.22166 579.851 109 75 9
-40.2529 118.925 594.279 117 86 23
-25.2904 115.543 630.74 36 13 0
-33.8284 3.00909 626.298 100 67 6
64.0109 57.2943 588.767 111 71 5
35.2088 39.6459 574.113 98 63 9
-49.6579 112.187 571.458 119 82 12
53.1944 111.589 582.12 111 82 25
-16.1901 -26.076 583.158 104 72 7
30.1485 64.0121 620.67 113 74 10
-41.1908 1.18454 578.133 101 72 7
49.8543 61.9995 599.394 112 77 10
17.2693 61.3931 617.705 114 76 7
-12.4306 38.7774 564.529 114 76 3
-17.3552 88.0675 594.291 125 92 35
-22.5089 113.454 619.218 114 86 32
29.1778 61.4254 563.97 82 54 7
24.2517 45.9916 605.004 110 71 2
21.1175 58.2452 614.994 98 63 4
-20.4365 -15.297 621.459 123 89 25
32.0403 119.359 583.446 55 32 13
-9.16743 81.5736 580.639 96 60 4
4.6001 -26.9291 600.139 107 74 21
38.7462 49.7173 595.483 96 66 10
-53.2056 120.331 589.419 129 98 47
-32.7835 6.69786 620.718 111 72 6
71.2645 82.5627 581.265 121 88 29
8.62884 114.078 612.415 92 61 4
9.64857 55.0738 619.989 112 73 8
16.0004 22.955 595.32 106 71 2
28.6979 92.8388 622.647 112 81 18
50.1703 60.4614 599.085 112 73 10
32.428 96.6826 555.204 109 74 6
-49.2405 117.208 572.945 109 73 21
-33.1478 -28.4922 590.881 110 75 18
-4.19598 -24.1359 616.385 101 75 24
-41.1684 24.6446 574.638 100 67 4
13.2745 5.43191 581.436 106 72 9
-18.2439 99.7277 640.466 101 74 22
-41.5464 69.2866 617.259 122 90 27
-9.76002 35.3325 565.422 113 76 1
-5.6539 52.4201 626.307 114 76 17
-7.29427 89.9115 587.986 98 65 5
22.4858 91.3485 621.668 107 77 20
-57.8243 115.588 587.428 105 73 11
-41.7674 93.7672 571.398 116 82 24
-42.6267 30.153 615.804 105 70 6
67.9196 68.6422 577.245 94 61 0
41.9583 94.8558 618.869 114 84 25
19.2752 34.6459 602.561 87 57 2
-8.38201 59.9193 564.581 110 70 2
-41.1834 74.4479 601.514 114 79 22
-6.46818 116.387 567.4 120 85 18
33.8773 40.0573 592.137 112 74 8
13.7668 22.391 598.507 103 64 1
55.3356 52.6709 593.592 107 72 4
52.2499 54.4622 596.619 108 74 2
-36.1142 114.537 641.362 131 102 44
-14.8095 81.4053 578.418 108 71 8
-29.28 34.2713 627.304 117 86 16
-40.1492 25.3272 615.525 109 76 7
-6.99486 44.7206 626.115 114 78 12
67.1061 58.8046 582.998 113 76 15
-44.3358 -12.2252 592.503 111 79 16
52.7348 81.4509 573.837 86 54 1
-42.7771 98.9724 628.434 94 65 10
-41.5182 28.3346 577.619 92 61 0
15.5576 -17.3242 582.382 106 73 0
57.2934 91.8376 605.022 116 80 19
-51.0459 29.0891 609.18 112 79 21
-28.8871 19.2057 628.952 105 75 18
-31.1973 28.7438 625.89 110 75 6
10.2522 86.5904 617.811 120 83 21
-40.9931 39.4185 574.361 110 78 7
-35.1881 -26.2535 607.359 116 76 13
-47.4637 -2.58993 597.707 105 72 16
-31.1673 18.3693 625.654 103 71 8
62.1653 46.678 585.332 108 67 0
50.0157 36.138 588.918 112 73 4
41.2426 33.0349 573.783 96 64 1
-40.1022 98.1852 636.733 106 74 20
37.47 30.9261 591.495 113 75 13
-5.18136 -27.8412 611.367 110 77 21
-3.4233 100.752 569.608 101 73 2
-51.4056 9.1993 584.427 115 80 16
0.926616 -23.6106 616.857 104 68 18
-43.0564 48.4792 569.293 110 77 15
5.73329 -24.712 608.214 101 65 1
8.70139 -0.629445 571.985 107 71 0
-36.4999 -28.5584 603.132 121 86 22
-51.925 46.4032 593.031 103 71 3
-38.971 -27.8556 589.644 120 82 13
-5.84583 -30.4434 600.168 113 78 8
12.1211 9.12608 579.656 98 64 6
-15.2949 -6.91311 567.009 113 76 7
27.1844 122.279 570.981 133 105 46
37.938 21.7069 588.555 111 72 2
-27.3736 -4.76705 631.344 120 84 15
-37.2805 -30.0038 596.418 116 82 20
14.2443 -18.1676 598.393 102 67 5
-1.48184 96.4407 569.52 122 89 16
-21.8646 -17.0312 620.982 123 87 20
59.8961 47.557 588.837 93 56 1
-51.5316 40.3972 590.68 114 77 17
38.262 93.9724 621.653 116 85 21
36.5946 58.8925 610.83 91 58 2
-39.7638 73.5085 607.684 113 83 19
-26.2636 115.816 576.461 103 71 16
-32.048 67.8756 633.854 103 73 19
-8.41568 87.5614 617.934 95 66 10
2.07006 1.89078 569.604 107 68 1
7.11687 122.45 566.582 137 102 39
-49.5834 120.702 588.9 122 94 34
0.390298 -27.1778 607.251 104 70 3
-34.9293 -25.3191 609.023 117 83 26
33.3038 44.4299 591.729 111 73 5
16.1139 117.275 616.736 120 88 31
18.585 38.9921 610.479 112 74 3
-3.6378 15.2085 565.013 105 69 1
3.28819 20.4666 622.507 105 68 1
35.3922 90.3423 620.293 123 91 24
32.8165 72.5419 558.108 103 64 1
-49.2558 110.877 571.398 118 82 20
15.9009 -18.8742 581.205 111 76 11
-50.3715 26.7511 608.649 109 76 21
68.7659 76.7103 576.168 100 65 0
36.6291 84.0063 618.934 119 86 26
16.3411 71.3601 556.455 108 68 2
-8.96048 59.2399 564.447 110 70 2
-16.9166 -1.86224 637.398 119 83 11
-8.08268 47.598 627.738 111 73 4
-6.75841 53.4727 564.324 113 76 10
-14.5262 100.113 616.215 110 80 22
-39.3058 121.358 573.273 131 95 32
-20.6502 8.25527 635.043 120 83 0
-16.4331 80.2768 575.164 112 75 10
-23.4896 -27.4847 613.736 118 85 30
21.727 100.078 555.452 106 72 6
-36.6227 -24.123 579.635 99 62 4
37.3989 93.2658 622.115 115 82 15
61.2126 99.55 587.943 128 95 39
-57.8227 115.227 585.62 121 87 31
40.7193 108.841 563.914 105 70 4
-52.209 31.755 589 108 74 6
-39.8961 72.4291 568.011 110 79 12
15.9611 101.334 629.37 118 85 24
13.6952 122.082 565.028 127 96 23
1.88545 35.4562 623.452 93 62 1
20.5647 34.2528 582.618 76 47 9
-50.0078 49.0407 580.092 110 77 17
50.7264 86.6116 613.445 114 80 10
-42.5782 111.142 623.183 97 71 21
5.71816 21.2976 569.395 106 72 4
33.2658 58.4145 570.822 71 48 1
-48.7331 9.04209 582.363 119 81 7
-9.04684 -16.1283 623.635 108 76 21
-9.88458 19.9454 562.363 107 68 2
-36.0843 2.01382 570.836 114 77 19
-8.6553 85.0872 583.656 94 66 5
32.1658 61.3462 567.468 85 56 4
1.11189 41.6029 564.456 111 74 1
-18.365 -25.9205 582.678 113 78 16
12.7236 18.5232 599.052 114 76 7
-25.6829 -27.3861 587.925 105 79 26
-17.9811 52.8421 564.713 109 70 9
-23.6247 97.4604 573.917 108 72 6
0.650479 85.4163 574.443 116 82 25
5.28978 12.0761 625.414 108 65 2
-39.2769 42.0457 620.364 107 76 18
-36.6724 78.918 629.698 114 82 17
56.0966 79.9663 604.582 103 67 6
14.8518 21.8196 596.64 119 81 18
-46.8698 -23.6623 594.933 117 79 8
-23.1267 104.037 577.596 93 64 1
3.26853 -27.2296 601.51 108 73 19
-7.45588 19.8661 631.043 111 73 7
-10.0343 104.142 573.816 92 65 0
18.4337 -22.3388 590.622 120 82 19
45.5178 29.7624 588.635 112 76 8
11.5919 0.977383 600.688 116 76 2
-2.86998 106.735 584.17 81 53 6
49.1163 73.0426 572.898 92 58 1
11.2282 78.6024 557.177 111 68 0
-48.0901 105.582 632.822 112 80 15
-39.307 41.6054 620.387 104 73 11
-26.993 109.152 644.382 110 82 30
-43.5942 34.4917 580.649 101 69 9
45.1495 121.213 580.418 115 89 25
20.2512 34.047 596.727 100 65 1
35.7431 20.1866 587.091 105 67 2
26.5542 55.782 610.015 95 64 5
33.8453 55.6653 602.953 89 57 2
18.5598 59.1807 615.8 105 72 14
-46.8183 42.6069 579.533 99 67 7
32.61 121.946 571.404 130 101 39
7.44067 100.443 628.518 116 80 18
8.39034 -2.61634 573.425 93 58 0
-52.6205 45.585 593.914 110 76 16
18.0096 120.957 580.255 131 100 45
-38.2094 9.23712 573.982 107 72 1
65.8226 94.3761 580.803 133 96 34
63.8286 73.8224 574.294 99 63 0
-37.4453 43.7767 567.222 111 75 10
-50.1309 -6.03583 589.365 105 73 12
11.9047 -14.391 597.939 96 61 2
-30.8433 104.941 594.328 83 57 2
48.0627 84.8423 619.5 107 75 15
2.26326 49.0602 563.863 117 80 10
-8.58975 -13.041 634.929 80 52 1
-19.7811 94.4243 582.252 93 62 2
6.04364 -26.0457 601.937 106 71 7
17.3406 -22.1538 595.717 114 79 8
-19.2736 16.7231 563.231 106 71 3
-35.5569 -29.0894 591.72 111 75 5
48.4827 30.8843 578.313 104 70 1
69.9936 89.2943 582.823 125 91 27
-3.22527 -10.7488 633.295 89 58 3
6.70073 113.262 625.509 99 70 11
1.78658 104.3 595.971 91 61 0
-3.35605 40.7376 564.213 111 75 16
6.29793 62.4749 621.495 104 66 2
-48.1771 64.1746 573.787 111 78 7
35.994 80.0606 619.817 102 73 2
34.9793 94.3071 621.988 117 87 27
37.2824 28.8246 574.634 99 67 6
59.3047 85.4304 594.756 101 65 1
8.46355 97.2848 562.423 118 75 0
-13.8138 83.673 583.461 106 69 10
-28.0311 113.401 619.302 108 78 19
12.2061 -8.0953 581.257 101 66 2
-23.1677 86.0511 608.002 110 77 16
-32.787 95.3359 615.638 97 71 8
-14.8131 54.6314 634.337 111 78 20
6.89904 -13.6657 611.129 132 92 26
10.0752 12.184 605.553 125 83 16
6.21176 17.2873 618.279 97 62 3
-32.3418 103.458 568.838 122 88 23
-35.4765 -5.23321 617.652 95 64 2
17.3529 110.991 629.714 123 92 35
3.58791 30.1848 567.819 93 60 1
-41.0286 105.772 643.779 107 78 22
0.00780213 18.867 566.957 110 71 1
-25.3028 98.3776 593.55 95 67 3
9.34579 56.0234 620.308 112 70 9
-22.2687 99.3521 577.922 100 66 1
35.4382 48.1182 592.925 114 76 9
6.1497 122.301 565.971 132 100 40
52.0605 52.9792 596.476 107 72 13
-50.4566 -4.82972 589.183 110 79 17
-3.97863 -14.6294 573.11 105 69 11
-1.7206 106.569 564.871 116 81 18
17.7654 28.5439 594.54 115 78 8
-34.5147 -11.3682 614.842 115 78 14
-45.4532 31.3575 614 102 69 0
-13.2409 92.1577 611.534 122 90 25
-8.17866 95.8773 575.846 128 92 2
12.3522 26.1546 572.066 102 62 1
-11.019 24.264 562.605 109 72 1
-10.6221 65.3166 566.885 102 66 2
-1.66378 33.7668 562.632 106 66 1
50.6703 69.8975 574.26 107 70 0
-12.0992 96.6235 630.893 116 83 22
3.05795 12.5056 629.698 109 71 1
-36.7835 18.4209 568.167 108 70 0
-22.5919 84.6387 601.98 116 81 18
-32.7492 8.7333 568.212 104 74 15
4.33894 94.26 621.995 96 64 7
-42.924 85.2131 593.931 112 74 7
-13.2162 45.8483 631.521 113 75 14
14.0581 -4.04267 596.74 114 75 13
7.77762 4.69119 625.495 94 55 2
61.626 97.681 590.737 124 91 30
-27.4571 92.9577 640.602 126 91 33
-14.4492 85.88 586.122 106 72 9
-36.1536 113.97 644.193 126 98 32
37.569 121.311 581.75 133 99 34
-55.1786 117.208 595.447 121 93 39
50.5083 86.5555 614.253 113 78 15
4.16765 91.0635 570.184 119 85 22
0.018496 18.0455 566.675 108 70 1
-39.9172 -20.6666 607.923 117 83 24
2.48393 37.1848 622.791 107 71 0
1.76591 90.8721 615.63 94 66 10
56.716 59.7081 593.406 109 73 6
-29.3801 52.4502 633.024 120 85 22
48.0245 55.1897 599.775 110 71 2
-32.64 80.8989 611.089 97 68 21
7.6683 30.7971 617.177 104 67 1
-0.740574 94.9938 604.58 91 59 0
39.8904 87.5526 621.538 126 91 21
-47.2721 5.37051 583.683 123 87 14
21.7009 34.0869 587.909 89 56 2
34.2651 59.9772 569.968 72 45 1
-21.9327 2.64623 635.831 115 83 13
-46.7127 88.4998 583.506 114 83 24
-31.9847 16.224 627.177 108 75 5
-29.658 68.5594 563.036 118 80 12
37.4079 74.5643 617.213 97 63 1
17.7768 13.8613 585.603 105 74 9
-12.3672 50.4257 632.053 119 80 18
-40.4682 98.3048 621.75 115 85 28
65.2805 79.1312 588.505 117 80 4
-43.6613 22.7967 581.256 114 81 9
37.5604 33.5186 574.226 90 57 0
-27.3049 78.5712 564.755 118 81 12
24.8583 103.266 557.145 99 65 4
-1.13986 115.836 563.748 128 91 26
37.5204 65.3931 565.861 78 51 5
-15.1224 -10.584 636.949 109 76 15
-49.4587 47.1283 610.269 99 69 6
8.71766 -27.7872 596.754 108 72 10
5.27069 27.2486 618.071 105 68 1
-32.6951 23.4171 565.774 104 67 0
-56.2539 41.3753 599.608 107 75 4
22.9931 77.5836 555.199 114 79 10
-11.9087 77.6329 635.74 108 76 12
36.4235 62.3744 568.35 74 47 7
-7.02925 86.7072 610.245 111 78 17
-39.6993 95.7261 569.091 114 82 16
-12.518 96.8928 617.619 98 72 22
-20.1366 -8.98791 570.163 104 74 16
17.2439 48.4332 613.627 116 80 20
-0.193304 8.91746 632.014 117 81 10
-43.5726 22.5444 581.265 115 80 9
-41.3377 26.2148 578.856 91 57 0
-21.4638 52.5987 635.159 119 88 26
-27.5358 119.252 586.911 120 91 37
-46.9545 -3.36587 583.453 121 85 25
-40.3961 115.996 628.061 130 99 45
-20.1228 28.0771 563.223 97 62 0
50.0675 72.1152 611.983 110 76 19
-16.3316 1.31397 563.919 108 71 9
-0.367215 21.4839 567.574 110 72 1
53.2173 84.1351 573.646 85 54 1
34.7518 100.155 624.231 135 99 40
15.8425 -19.3356 580.658 115 79 14
58.3653 81.6038 588.936 97 60 0
-38.3916 27.5643 618 112 76 7
6.68382 121.638 564.285 128 94 24
-45.3708 25.1503 583.207 108 76 15
-34.44 65.4848 633.141 110 82 26
13.5083 115.294 628.749 127 99 40
2.29896 -25.9683 586.833 100 73 10
-3.85518 88.2066 578.179 125 88 26
15.0537 8.86206 593.94 107 67 1
1.30771 116.582 560.715 125 91 27
-45.3284 3.01299 582.865 123 87 17
15.7503 15.0684 581.673 107 71 5
3.24599 -23.9146 611.466 106 72 12
-7.99335 104.028 579.001 72 44 7
42.9218 117.135 606.884 124 94 26
-28.6343 96.4194 641.918 112 82 24
-57.3848 119.373 580.515 128 97 34
-27.9273 34.362 628.039 112 80 19
2.57161 121.98 572.764 135 102 44
4.7781 91.3033 569.012 118 80 7
-40.6038 -17.0186 603.192 106 75 12
15.3426 96.0542 626.384 117 80 19
-18.4354 33.0055 630.629 125 89 29
-24.5701 58.4383 635.958 119 85 33
43.4937 60.2854 602.737 93 60 8
-43.2752 105.522 642.99 115 87 16
-18.8826 1.63375 564.077 110 77 21
-52.5954 43.6805 594.125 112 79 17
-36.3871 28.7489 568.283 110 75 17
0.921992 103.407 594.21 91 61 0
-45.1702 26.3112 582.05 113 75 11
-38.3405 115.668 595.359 85 62 9
-19.2958 -25.303 617.794 116 84 22
-19.812 -10.6267 627.9 87 62 14
47.7521 85.7937 563.798 91 58 1
12.2691 58.7133 564.317 104 64 0
43.5063 45.0288 594.681 110 75 4
-32.6556 113.135 594.018 86 62 12
-51.9756 60.9556 583.132 107 79 18
-13.2071 67.969 635.539 103 67 4
40.8321 60.3065 608.024 94 58 2
56.9355 104.737 581.164 116 82 30
37.8199 99.1225 620.88 131 98 39
11.3203 19.9392 603.759 111 74 6
-36.7184 93.2256 567.972 119 82 24
59.2019 43.0694 577.023 97 66 1
-42.9613 -2.20695 606.993 101 68 12
9.88157 93.2198 622.629 108 72 16
-11.2042 73.8936 573.212 106 69 6
-14.0065 64.0259 634.423 98 69 9
6.31266 85.2386 564.906 99 65 0
-45.8652 6.38436 599.705 111 71 10
12.1062 -22.7178 575.083 107 74 11
22.3877 76.8833 555.255 114 76 7
45.7104 104.565 615.783 131 99 43
-2.66138 -9.79792 571.617 103 68 7
-38.154 93.3274 568.765 117 78 20
-3.23883 66.8738 566.574 103 66 5
9.11535 -6.42912 605.613 105 68 2
-53.4783 113.7 572.606 116 79 19
13.369 49.2188 616.178 105 69 1
39.6743 67.2604 565.58 82 55 7
29.1708 52.6048 604.716 107 69 2
26.004 116.959 619.413 129 100 42
24.7947 117.485 563.328 120 86 28
-34.1091 10.2591 568.306 105 69 7
-38.2973 100.559 595.989 81 57 5
-49.5822 102.98 590.48 116 85 27
-29.0334 31.5442 627.204 116 83 17
-34.5746 14.5466 623.223 107 72 4
38.8104 94.8796 558.132 115 80 13
11.0909 105.962 557.809 121 80 2
-7.38137 36.5956 625.333 106 69 1
36.7083 62.8392 568.293 73 48 1
-31.3197 86.8161 634.161 116 86 23
-38.3648 39.8197 570.782 108 77 17
-46.5986 -21.7691 597.006 115 81 14
1.06656 22.0916 567.769 112 74 9
-17.6415 -13.4308 570.777 114 77 16
11.6106 -6.63975 600.197 116 78 2
-36.3102 30.185 623.289 113 81 27
-51.5787 66.7806 586.085 109 78 17
20.2268 28.1122 584.056 103 70 17
36.0567 94.8282 558.067 105 69 3
19.893 27.9329 583.413 104 72 5
-50.9785 0.966962 593.312 101 71 24
-40.4206 19.1791 571.9 103 66 2
7.00053 75.9394 618.865 99 67 4
12.9472 121.605 563.433 133 93 21
0.566796 65.9965 622.341 99 65 0
-46.6272 108.935 639.114 110 78 19
-31.2482 -24.2035 614.164 116 82 10
-3.32805 24.0378 626.535 106 69 1
-43.8226 35.648 614.323 95 63 0
12.3143 16.7976 575.434 109 71 0
-1.28022 66.5726 622.227 99 66 3
-35.7747 3.82449 617.295 94 61 0
-36.0777 107.556 647.55 113 83 23
33.4422 98.4869 556.734 99 65 1
-44.3919 32.1812 614.99 105 69 0
-33.6521 4.92402 619.455 101 65 0
34.7837 90.2421 619.915 127 90 22
14.9186 65.9157 558.363 105 67 1
38.2664 31.3599 591.762 116 79 12
-16.0464 114.09 626.639 112 84 23
-37.7745 121.55 573.646 125 89 34
-36.1654 -15.1211 612.119 116 84 25
-35.2193 2.55854 623.628 98 65 0
56.4248 107.469 592.093 117 87 31
8.95509 117.968 595.536 112 83 27
11.762 16.8057 573.827 113 73 10
7.44043 122.225 571.827 136 103 45
-18.4429 -27.4188 585.115 110 74 13
-49.8055 47.776 587.535 106 72 4
-35.4335 3.97896 617.679 94 61 0
2.05846 63.9922 622.527 102 66 3
3.72065 -24.6213 581.43 96 68 3
7.28343 84.3344 562.413 105 67 2
-12.5058 -19.3392 575.445 106 74 18
-37.3531 100.222 618.703 99 75 16
-10.6602 63.0901 565.572 103 69 2
-8.85093 67.1825 632.207 112 78 16
-27.4757 87.0121 568.523 119 83 20
-7.22363 -12.9927 627.117 95 66 12
57.0349 52.2931 571.661 92 53 0
-42.9561 92.4579 592.929 109 77 20
-26.5119 6.68447 631.651 114 80 8
1.6419 121.759 574.44 133 101 41
-1.64421 100.391 590.472 91 62 0
-12.5939 30.5579 630.775 102 64 3
-40.1979 114.029 596.157 82 59 2
-32.727 80.9498 601.187 112 80 19
26.7771 97.0256 623.295 123 94 35
-1.13455 -10.0757 622.148 95 64 20
45.541 118.226 600.858 127 94 32
10.0089 20.9576 608.417 110 72 4
-30.6477 72.8479 563.089 117 78 9
42.5785 38.8911 572.593 98 65 0
5.3421 44.6903 564.594 111 71 1
-19.1643 99.913 613.82 115 82 21
1.25007 -0.15797 569.196 112 73 1
17.2467 83.3268 618.086 106 72 10
17.9733 100.567 557.058 116 80 27
-47.3218 104.587 625.365 113 77 14
-11.3316 95.0579 620.796 99 72 14
18.8134 55.6866 614.593 114 76 12
-2.22447 69.8008 621.479 115 77 17
49.4963 60.252 571.524 104 67 1
16.9121 14.6549 591.695 111 74 5
31.4271 106.555 628.035 136 101 44
49.8319 67.029 604.518 96 60 2
-37.0423 64.7759 630.747 122 86 15
-9.25452 -27.4417 585.009 111 75 6
-21.608 -8.39902 632.578 86 63 3
51.0864 43.6371 572.214 85 53 0
8.87172 114.588 613.219 90 61 5
38.2844 120.441 571.851 118 87 28
-41.8691 19.1067 579.579 102 68 8
-44.3462 99.7284 593.535 111 77 11
-11.1525 81.3632 633.346 119 86 13
-38.1872 114.435 569.973 117 78 16
70.3708 72.0162 583.272 119 82 11
-5.22732 25.5912 562.899 110 71 3
-25.0726 62.3545 564.457 120 83 12
1.81429 43.5346 621.736 117 79 22
58.3762 76.827 589.323 110 70 0
-9.99325 89.958 614.521 106 74 15
-25.4907 30.4046 563.486 118 78 3
42.2808 88.1601 622.475 122 86 23
-12.8991 -0.293796 636.361 108 73 11
59.0298 96.0906 576.216 101 64 2
-42.2343 -6.81686 602.337 107 69 0
-54.2134 13.9456 593.92 109 73 2
34.1184 121.859 576.777 132 99 36
-35.693 31.0577 624.087 105 70 0
43.4834 119.475 593.683 134 103 45
33.4342 76.1268 559.41 95 57 1
-41.7426 67.5585 568.338 116 79 19
-28.5294 -25.4514 585.509 110 77 19
31.1292 45.4436 594.135 106 67 4
47.8014 93.6815 615.405 126 88 27
35.4843 93.4236 621.999 119 87 25
21.96 75.1394 555.592 114 75 17
59.0979 51.2207 590.514 108 70 1
-43.0638 32.441 577.665 99 67 14
-38.5243 98.0173 595.722 88 61 0
-17.6568 15.0305 562.269 102 67 9
-53.361 39.4703 606.816 102 69 6
-20.9807 -2.89582 637.183 120 84 25
5.10905 92.2412 620.574 106 73 13
-43.2594 18.5246 609.854 111 79 20
-33.8652 20.5255 565.809 106 67 0
-38.4928 -4.64658 579.759 90 67 16
-12.9075 100.291 621.328 101 71 18
-48.1312 105.522 626.083 112 80 10
31.1244 43.7664 578.214 93 60 5
-19.3722 -23.4996 579.909 106 75 14
34.6008 105.819 623.249 132 99 44
-51.1776 51.4128 592.714 113 79 25
-20.5617 -10.2347 570.975 113 81 13
-25.5005 63.5199 564.178 112 72 6
-8.5623 -26.5673 618.091 104 74 17
-28.028 110.013 617.929 106 76 21
-32.093 113.44 570.003 119 85 27
-14.2132 81.4626 636.282 109 79 19
-20.7933 -29.5157 589.884 104 71 4
31.2407 120.593 567.911 124 92 28
-52.5775 50.3087 600.374 102 74 6
-15.6212 38.0238 562.517 110 73 1
8.92771 79.4072 616.925 100 69 8
-6.72741 30.1467 563.077 106 68 1
-38.3871 -9.81 608.382 113 76 5
-23.1522 -10.8888 623.262 105 79 25
38.5116 96.368 558.278 116 80 13
29.9655 82.0269 558.08 106 70 1
-38.6841 80.142 569.236 112 78 21
21.8691 52.781 567.893 101 66 7
-8.84856 88.0481 614.644 106 76 12
-5.01639 67.0296 629.136 113 77 10
-11.4408 61.7207 565.218 111 72 4
34.3815 44.8305 592.167 115 77 7
-8.17167 2.70533 565.712 100 65 2
-5.36037 20.1082 563.304 106 68 1
-7.32637 82.107 580.052 99 62 2
10.3875 -1.2717 617.619 93 55 3
16.3787 100.821 628.915 115 81 19
-42.2353 87.7978 593.824 105 75 14
16.9707 12.2217 593.113 111 70 5
49.8435 69.3267 573.744 102 66 1
-39.3992 29.6525 617.823 104 72 11
41.0328 25.201 590.148 112 76 10
9.03544 21.5236 610.601 106 69 0
-28.1453 43.0107 629.394 115 81 11
49.0468 80.5333 613.765 116 78 16
-24.5542 100.156 614.151 105 77 12
-46.5712 108.996 625.176 104 76 15
-31.5436 35.8111 566.001 112 74 10
6.03174 114.545 595.922 97 70 10
-4.1921 -5.95526 633.927 123 84 14
-14.1005 -12.7658 629.703 95 67 10
-49.3912 58.6785 608.907 112 82 23
51.2316 96.5365 568.44 96 62 1
-8.56969 -2.54594 566.458 104 63 3
-41.1558 -14.0651 599.484 120 87 15
-27.134 -15.6267 621.69 130 90 30
-43.8534 56.6576 568.836 116 83 23
-18.6582 48.0045 633.648 111 76 3
50.0835 30.5184 582.895 104 69 7
-37.1531 92.153 628.833 123 89 31
-43.3349 21.1866 581.264 115 80 9
-7.62543 105.721 569.913 124 87 17
-14.8474 9.54781 561.876 114 76 2
-18.576 56.0394 564.009 103 66 2
-45.6581 106.228 639.328 107 73 13
-5.2573 -15.7734 619.453 123 91 18
-13.3721 95.6453 634.594 122 87 28
24.3861 94.4196 555.645 101 66 4
-18.0308 116.328 628.46 121 93 35
-46.5489 92.895 579.624 119 83 33
-44.1332 99.8636 624.378 107 77 16
-1.74297 64.5301 622.929 115 80 24
-50.5121 51.1608 587.582 99 67 8
-20.983 -10.0894 627.783 85 63 15
13.3761 105.729 631.035 122 88 24
-33.2415 5.36898 570.023 114 79 15
-54.0481 39.1575 594.747 110 77 16
20.6583 36.7073 603.321 87 52 2
-36.3107 89.9684 617.14 108 78 15
16.7485 26.7366 579.144 106 70 3
39.8412 101.887 619.401 124 92 31
-35.9573 -18.6605 611.592 116 81 17
15.1719 55.0059 565.427 111 72 3
-1.41081 119.972 579.6 114 83 26
-0.725776 -23.8242 617.774 108 74 7
36.1137 115.686 616.059 119 88 35
-25.2264 15.8655 633.082 98 67 4
-26.9103 -28.6568 590.511 104 71 6
-37.7066 112.923 646.021 116 88 31
-28.3909 112.68 592.083 99 69 13
-19.5737 30.4093 562.833 105 65 3
47.8152 118.389 596.827 127 97 39
36.9825 115.466 615.67 119 89 35
-8.75619 88.3992 593.486 115 81 20
-25.9378 -29.4143 592.175 103 70 6
6.71889 -18.7524 573.351 109 71 6
44.8779 94.9814 617.055 117 86 26
29.2258 35.1853 583.645 75 52 1
7.71467 90.179 620.853 120 86 30
-41.9457 98.3592 628.047 104 74 13
24.6227 50.0495 570.624 98 63 1
51.7644 59.343 570.472 94 54 0
-7.99305 100.736 579.876 67 40 3
-54.9978 117.144 573.384 114 78 5
35.7749 121.283 571.659 127 95 30
-8.99904 16.2069 631.436 125 87 13
5.83214 -13.8249 613.062 107 71 3
8.26905 110.695 557.837 122 84 14
-39.9846 -25.8252 584.226 123 82 16
-18.3284 88.623 608.387 121 83 25
-54.8502 37.9113 600.717 91 58 0
31.5881 59.3421 570.426 89 59 1
-2.85213 56.1798 565.124 108 73 2
-20.5739 -8.74357 570.195 108 77 18
37.5602 74.072 558.303 101 62 1
-36.3669 -28.1776 589.212 111 72 5
2.07825 98.3367 566.89 116 81 15
-1.9459 92.4325 572.736 114 75 2
55.7919 38.0863 586.821 100 61 0
29.1813 117.871 604.933 129 96 38
-28.4036 49.5993 632.061 118 83 16
-29.0859 -28.5429 591.703 102 71 7
-1.27708 -5.62352 634.286 124 82 12
-37.206 36.5691 568.803 103 69 9
1.68345 19.4699 625.346 108 73 2
-25.6001 88.052 638.172 118 86 26
-7.89538 22.6484 563.01 105 66 1
5.89367 71.0694 561.309 109 71 5
5.04816 73.3266 561.597 111 70 9
-35.7231 71.5468 564.656 122 84 12
26.4803 85.5522 619.335 105 73 5
-44.7609 109.95 570.303 122 84 21
-36.4765 111.486 595.468 79 52 9
56.8448 104.65 580.611 111 80 21
-8.42943 26.9183 562.558 110 68 1
44.4566 111.767 569.268 104 71 1
-14.8354 111.923 634.205 114 83 33
-33.17 -7.98353 617.267 115 81 24
-35.0373 -12.9208 579.342 122 85 13
17.5042 68.5823 622.808 123 83 22
29.8922 40.0134 588.43 100 73 15
-7.65591 93.1281 577.815 110 76 13
50.5673 34.4293 577.059 95 67 3
-20.8787 66.9271 637.1 106 77 18
-17.2622 12.4285 562.034 105 68 3
12.3521 119.514 592.966 120 91 32
-39.6658 57.6108 566.38 118 81 28
-35.5384 93.3655 617.153 105 74 11
-7.62733 107.482 568.681 115 82 11
-29.6801 39.9472 626.866 111 79 28
-22.5363 93.7625 574.047 108 73 3
-7.88042 74.9511 630.071 115 80 21
-31.9301 107.921 646.284 121 91 37
-49.4334 -4.83697 587.103 111 80 9
31.6326 39.1707 589.852 111 77 14
-23.5152 70.1072 564.077 123 85 15
-19.328 26.574 562.782 104 68 2
-8.59008 5.21758 635.496 121 82 16
-1.81238 24.8664 625.404 111 75 9
53.2927 106.774 604.446 115 86 29
-34.1187 12.4493 567.441 92 59 0
17.3317 24.9706 592.872 112 74 7
-29.3694 39.1166 627.057 114 77 17
-12.7814 81.3087 580.608 103 67 5
-13.9989 13.9473 632.937 120 84 10
-24.9315 2.43163 568.194 95 67 11
-25.6368 115.496 577.817 105 72 12
-27.8633 -28.9629 591.982 102 70 6
-37.7951 9.98535 573.949 100 66 2
-5.97408 88.9201 602.577 117 80 18
10.1316 -5.44388 603.971 117 77 12
6.15431 110.013 607.346 88 60 5
51.5568 69.8673 605.526 96 60 1
48.3477 50.7573 596.958 113 78 12
-29.4776 32.8289 626.953 107 73 14
-43.8019 68.0344 609.757 111 82 20
-33.756 63.3785 633.444 111 81 22
-15.743 21.0427 632.001 98 64 0
-5.54092 -11.9867 633.741 83 51 1
-35.477 103.676 646.15 115 89 30
-7.42919 -13.3699 625.591 87 61 19
-24.8973 100.189 643.162 116 84 24
11.7077 -24.5926 601.024 117 75 10
24.5583 53.43 609.52 112 76 14
11.7679 107.024 630.36 121 86 30
0.482306 -13.5699 619.254 116 80 13
-31.4529 116.57 624.668 120 86 30
-35.6903 38.3766 624.507 105 73 6
31.5707 119.446 592.146 4 3 5
-48.7167 104.25 627.924 116 83 20
54.876 102.033 574.684 91 57 1
-48.3702 42.1288 584.697 107 75 12
-29.0587 5.83921 568.107 98 64 6
19.4506 40.5193 610.843 102 64 1
-26.876 82.6286 603.389 112 79 15
-27.6612 113.658 643.428 127 96 33
8.42976 92.5114 565.63 120 83 18
5.01441 -27.729 593.764 104 71 8
-32.2 -13.5054 617.513 117 79 21
-39.5475 14.149 572.169 102 69 8
44.9797 17.545 578.038 122 85 1
8.63877 -21.6354 610.224 126 85 6
10.3784 -1.56606 603.37 110 75 8
1.13783 -16.7445 618.569 128 90 13
-27.759 36.2046 627.981 107 75 10
-46.5798 95.0748 579.609 118 88 34
-20.6014 115.674 621.596 126 96 38
26.3289 117.036 618.105 131 101 40
0.0637811 66.3374 565.912 105 68 1
33.9327 33.0113 590.703 111 75 11
-47.1408 79.3794 578.615 111 80 24
4.65126 -27.6029 592.617 101 70 8
57.6643 76.9748 590.702 105 66 7
0.512776 51.4035 563.993 109 72 2
-37.7082 101.73 596.025 76 51 1
11.0372 4.77309 608.123 102 65 6
-10.7811 15.0871 632.673 97 62 0
9.90512 114.627 557.399 119 79 1
51.9516 71.7047 575.255 102 67 0
10.5611 -13.6255 607.047 107 71 2
-42.0678 -11.0591 583.252 133 97 31
31.3627 55.0619 573.375 94 61 3
31.8663 75.7823 560.515 112 71 1
3.42424 -25.2227 609.105 107 70 5
45.4361 97.9194 562.539 98 65 3
69.4425 78.4193 588.191 123 85 12
11.3289 16.7577 572.803 109 75 13
6.49966 48.4923 620.486 113 74 10
39.7539 121.555 579.906 124 97 35
18.1829 32.3839 580.411 99 65 6
60.3539 71.5606 590.004 105 68 4
24.5115 46.305 604.983 110 70 2
-47.6137 66.3085 596.806 111 77 14
9.65531 40.1809 616.02 101 66 1
-17.4973 -27.8304 585.574 111 75 12
16.9077 -20.0534 582.601 108 78 14
4.98726 2.70456 630.936 109 77 13
-33.5817 -27.8523 606.126 115 80 25
28.3008 114.878 625.505 129 96 38
5.12475 16.3178 567.505 99 60 0
-48.7751 43.125 585.446 116 81 25
2.09508 24.9285 567.645 112 74 10
-0.82566 -12.941 574.457 107 73 17
17.2596 59.9965 616.608 111 76 20
0.801847 116.197 560.857 119 85 26
-8.56155 117.178 574.221 98 68 22
-25.2803 -28.1087 588.729 110 75 16
0.0539061 59.4807 564.726 107 72 2
-27.6352 33.278 628.126 108 80 14
-19.797 12.2145 563.933 101 68 5
57.9626 45.1052 589.732 99 60 1
-29.1868 21.9428 626.685 111 75 8
40.6623 93.0185 558.25 115 80 8
-1.54434 94.7401 600.822 94 63 0
15.5992 -25.0325 585.099 110 75 2
-46.0729 -15.3678 584.052 109 81 11
-45.2688 -25.8833 599.178 115 80 17
-37.1301 39.4749 569.746 115 79 18
-45.8398 107.57 624.26 98 70 12
10.7382 107.731 558.102 113 78 14
14.7897 90.9056 562.038 109 74 13
-30.4998 17.2895 564.797 107 70 0
-0.855195 107.792 586.86 84 57 6
6.40385 14.868 621.276 102 65 5
-33.8879 98.0359 640.102 112 81 26
40.2341 68.1137 617.769 110 77 20
-0.446904 9.40557 631.909 114 80 4
63.5688 87.7801 590.205 120 86 18
48.0111 67.6905 571.794 91 54 1
-1.49767 43.6258 623.357 114 79 11
-47.1583 107.128 638.79 114 83 28
-23.4036 16.0643 564.192 94 60 0
-43.6593 -13.0082 594.232 117 84 29
14.6821 -0.99894 594.964 125 84 6
-33.2436 104.577 646.353 116 88 31
-18.2113 22.7792 562.918 107 68 0
1.44513 109.617 561.018 114 77 7
10.4433 24.4695 611.879 116 82 17
3.90847 -26.9171 600.895 105 74 22
-20.6092 -11.0813 624.573 92 69 27
27.4696 57.2623 613.266 89 56 0
-5.47616 59.2934 565.555 111 74 2
28.572 110.558 629.369 127 92 16
-28.6129 107.708 570.767 119 85 24
-17.4134 -4.10116 637.63 122 89 27
-16.3133 39.7844 562.965 107 71 8
-4.82286 -20.8575 618.846 134 98 25
23.2539 57.8702 566.775 88 58 3
-37.6003 -22.9031 609.188 117 83 22
16.1144 66.0928 621.198 119 76 4
18.2176 -20.0775 589.284 108 80 15
4.8237 46.1453 620.938 116 80 23
-45.844 41.2866 579.519 99 66 1
-18.5795 -27.8643 615.024 109 80 22
1.90406 104.447 562.713 116 77 14
-49.0543 104.342 629.462 111 79 19
4.35096 8.99545 621.839 112 76 4
21.804 53.3046 567.677 103 67 1
-5.0152 18.9537 563.611 106 71 13
-11.6127 94.4868 617.58 97 70 21
-14.8839 14.4324 632.543 116 76 10
40.866 26.5805 590.472 109 73 9
20.0982 26.1783 585.365 97 64 4
3.34056 -25.3832 608.763 108 70 14
-55.0113 111.084 596.957 117 85 20
65.6244 71.7774 574.694 98 57 0
8.07323 15.615 569.351 106 66 0
-50.2061 69.5504 579.786 109 72 1
13.3765 36.818 570.681 101 62 1
14.1396 -27.6114 590.883 117 81 15
-41.6502 -28.5018 598.043 125 87 27
-55.614 33.0543 600.732 103 69 14
-39.9048 1.08578 614.17 101 66 0
60.572 57.2922 591.333 103 66 1
-8.09621 -26.7455 617.238 113 80 10
39.0504 36.4029 593.399 116 77 7
37.6977 117.374 609.248 130 101 44
-9.36374 -22.3273 577.87 104 72 21
43.0784 64.0834 612.446 101 63 3
32.2569 94.475 553.824 107 71 6
0.908073 -27.5997 605.881 111 73 9
26.8977 117.08 611.835 126 94 36
-9.28739 70.7106 570.393 105 69 2
-42.9513 -24.6358 587.983 119 81 19
9.68868 85.1675 560.475 104 69 1
38.3828 121.387 581.394 129 98 32
45.6767 98.2909 616.946 128 95 40
-20.8338 72.5241 566.399 117 80 10
-9.81467 88.0565 628.32 113 83 18
56.4094 85.3902 607.013 104 69 2
-39.1395 83.7829 623.476 114 82 23
58.4201 97.5027 576.226 100 64 2
19.4961 31.0666 592.719 110 71 1
-52.3742 120.283 590.528 131 99 39
55.933 97.946 574.442 95 61 1
-2.97401 90.2087 605.475 100 65 0
12.8167 -7.62447 581.575 109 70 9
-57.4266 116.649 589.35 125 88 28
-27.5401 118.77 587.955 120 89 36
-33.5521 36.5722 567.407 106 72 10
53.7007 69.7357 596.805 102 65 1
-47.7341 22.0893 585.425 120 86 15
56.8411 106.674 592.216 119 88 27
-13.1004 -13.6998 627.18 81 58 10
-35.6601 71.9211 631.811 109 76 10
18.4803 34.0149 606.57 113 77 18
6.15102 51.2396 565.015 111 75 5
-37.5876 73.434 565.937 105 70 10
-22.6731 55.4154 564.123 122 85 20
-34.944 100.883 644.319 113 84 26
44.5834 76.0203 563.089 88 56 1
11.2831 -12.7268 598.108 101 68 2
-40.185 -7.61064 603.687 102 69 0
60.1779 51.4547 589.915 110 71 1
44.4165 93.4811 618.199 109 80 19
-33.0784 -7.66962 617.554 112 76 15
50.8477 112.672 577.941 104 75 13
27.4274 66.429 622.455 108 74 11
-14.4476 84.8066 584.481 103 71 6
2.24256 76.9498 618.471 96 66 7
-45.4545 120.852 573.342 133 97 37
-40.8847 -15.3005 599.958 120 84 14
19.7675 67.1116 623.179 120 81 9
9.22659 -1.38557 573.173 101 65 6
11.6802 57.4554 618.516 102 65 1
-8.06718 62.3223 631.907 111 69 3
14.6424 -0.679035 595.164 123 81 3
0.645099 -24.6244 613.915 107 72 4
36.9198 118.505 600.612 127 97 38
-22.7101 35.5608 630.407 117 81 14
0.415211 -23.7654 582.84 110 77 16
40.6639 82.9221 620.981 129 92 36
-21.7248 -5.46096 635.906 103 70 13
-42.9153 14.6451 612.392 105 72 11
11.4283 89.3983 620.538 118 81 17
27.6069 97.1065 553.63 121 83 16
33.5114 53.7742 600.839 109 74 16
66.9476 93.228 580.818 131 95 25
-5.57665 120.821 574.18 120 88 30
15.1441 -1.63497 593.794 122 82 6
25.7131 67.0785 558.03 103 66 1
-44.9826 121.705 574.623 128 92 34
-5.54467 115.373 564.37 116 82 11
-46.5666 23.8991 583.683 117 83 12
3.24574 109.562 560.241 108 72 1
-40.0701 18.8582 571.688 100 65 1
40.3516 91.4589 622.113 119 86 21
6.14573 113.851 597.512 95 67 8
-31.2651 13.9485 629.746 122 84 24
23.3571 82.9924 554.896 113 72 1
38.7801 15.4701 584.275 98 61 1
65.4858 93.0849 589.296 131 93 32
13.1054 72.9587 556.972 106 67 3
-27.1128 102.923 571.202 115 78 13
-9.71349 88.621 611.235 119 85 25
7.20255 88.0395 619.446 120 84 25
27.2375 113.632 561.149 115 79 11
23.2794 39.5985 579.258 76 50 2
-38.2124 40.2021 570.393 110 74 10
0.0244278 99.834 595.939 94 62 4
-15.8273 30.2049 630.695 121 84 22
-31.577 112.725 645.354 111 79 14
-39.4348 69.0141 627.552 107 76 13
-32.7086 108.278 618.464 97 72 2
-3.97771 24.6738 563.752 103 63 1
-18.1692 83.1981 574.857 110 75 9
-24.4873 114.681 581.436 105 72 15
34.4969 75.6653 558.363 96 60 1
-38.0142 10.0466 618.067 109 73 6
35.7428 48.9732 574.98 108 72 3
54.4012 107.984 579.26 108 76 16
21.7761 108.138 630.86 126 93 32
-1.15432 47.133 563.628 111 71 2
-30.9505 -0.349855 630.928 119 82 21
-8.36996 104.926 578.218 67 41 8
-32.5474 95.8246 639.668 115 86 28
36.8167 60.8946 615.05 98 61 2
58.3719 82.7418 595.998 98 63 0
-26.2925 -28.3287 589.467 105 74 5
-41.3067 74.7451 622.002 118 89 25
11.532 57.1018 565.034 114 79 18
19.0062 82.5459 555.08 108 70 1
34.3566 69.5706 618.583 103 70 0
51.3942 52.163 596.327 104 65 2
-55.7631 27.3871 595.683 113 78 17
-41.5601 16.3584 579.335 99 65 8
-5.94604 55.5456 628.071 113 77 6
-30.24 100.5 568.782 115 80 19
-55.0774 32.1059 596.112 107 75 3
3.01624 84.276 570.494 104 69 4
-16.6422 105.925 617.735 113 82 21
67.1945 88.8809 589.429 118 82 14
-49.0721 102.424 580.041 112 78 18
-20.1405 -6.2346 637.15 117 84 10
37.5456 67.9923 618.672 111 73 14
27.4653 118.608 601.131 124 93 37
-45.6669 85.9226 577.008 117 84 24
45.3273 111.73 570.15 101 68 7
14.5104 -17.2704 580.342 111 74 8
-37.788 121.77 578.874 119 88 34
32.7895 107.697 624.991 121 90 28
-8.6508 119.475 568.976 122 90 30
5.31666 105.348 627.735 92 63 1
2.11992 7.68285 568.669 90 57 2
-0.775456 26.9075 567.302 99 61 1
-20.25 93.9597 592.338 110 75 18
-31.4667 66.5383 563.934 115 78 9
-34.0511 3.89816 623.173 92 61 0
33.0059 40.2467 591.274 113 75 6
56.2842 79.1813 602.888 98 65 0
13.4635 16.4815 579.636 105 71 4
-2.24615 -1.87194 569.786 105 67 1
-7.32689 70.4883 569.683 101 67 2
0.0508969 -9.75416 621.345 97 67 26
-28.9189 -27.2604 588.919 108 76 26
12.0023 119.555 560.531 123 85 14
-40.2183 32.1648 619.463 110 75 7
-45.9997 102.939 624.169 112 76 15
29.4392 94.6419 623.458 110 80 24
-43.5592 -20.4192 600.948 108 76 2
66.2073 53.925 581.238 120 81 18
-48.7756 0.595317 597.145 114 79 9
35.2345 93.6953 556.868 113 76 4
14.3751 72.3447 556.691 105 67 2
4.90938 90.4642 619.119 114 77 25
-3.55066 75.7761 620.541 112 76 10
-5.58061 93.1281 575.373 111 77 3
12.2207 2.58568 598.154 107 71 6
-10.1685 15.1288 632.1 104 68 0
5.40145 -25.5707 603.645 101 72 19
-37.3749 22.2604 568.014 108 72 15
38.6425 86.4214 619.987 127 93 31
-44.7102 106.771 571.209 116 81 14
-11.2608 -12.4605 636.264 100 69 1
57.943 44.5374 588.49 91 54 1
-19.8718 89.1264 640.331 106 73 8
15.6575 8.82934 582.054 92 60 3
15.6575 63.1138 618.566 118 77 9
-15.8708 42.4708 562.965 117 78 16
-18.8633 92.3581 583.082 92 63 0
25.2111 41.4325 579.368 73 48 3
-47.4883 -20.8849 593.317 117 82 16
-5.67207 62.9879 566.421 107 71 2
-47.4119 -5.74721 595.149 97 68 11
0.233292 20.4859 567.529 112 75 8
36.0193 119.481 591.366 94 68 12
-46.1786 65.3648 609.241 115 80 27
11.5109 18.8 573.692 107 72 0
2.14782 110.547 590.85 88 61 7
25.9818 71.5242 624.24 113 80 18
-12.3438 79.7877 635.646 109 81 22
6.29191 39.8289 566.037 113 69 1
-36.0954 65.6862 632.213 115 84 26
21.0196 119.294 596.202 106 78 21
1.81398 112.592 559.668 115 79 17
-42.1855 99.4932 635.539 103 72 13
39.609 66.4854 566.95 83 56 4
3.93879 64.4857 565.55 109 75 4
40.5905 61.8554 568.815 100 64 1
-43.0823 110.961 643.381 121 87 13
-10.9458 62.9125 633.687 107 73 4
-7.0056 -12.8281 627.03 94 69 17
-12.6296 -14.8022 625.278 132 95 31
7.7394 55.7499 563.993 114 77 12
-42.2293 100.68 595.53 105 74 8
-11.0625 16.8156 562.491 108 69 2
37.4206 101.349 621.279 134 103 42
36.8578 73.7533 558.173 106 67 1
-36.0035 73.2827 631.308 103 72 7
50.3862 94.4453 614.221 128 92 32
-13.349 52.9946 564.66 113 80 10
-8.33406 67.5111 631.959 113 77 12
10.7558 12.5216 573.871 104 65 1
18.7812 24.3465 590.709 97 68 10
-14.1894 46.7172 632.283 114 75 15
17.2805 93.6001 624.075 125 93 40
29.8802 29.5287 584.105 77 54 2
4.81663 8.41754 621.404 99 64 2
36.3688 40.5322 593.052 116 79 11
-3.21731 107.518 564.653 115 77 10
34.0449 87.689 557.355 106 70 1
-35.9517 -5.07654 575.514 93 68 17
-47.9952 108.547 637.887 115 84 20
-4.01783 92.3697 575.053 114 80 6
-16.2541 -6.03021 567.145 111 74 16
-32.8887 -24.6885 585.191 102 70 25
-34.7091 78.4899 604.406 113 82 22
22.3464 36.3537 583.719 69 39 1
-45.0615 100.103 631.248 97 68 14
-14.3911 64.31 564.936 109 68 2
-32.6727 75.4116 633.562 122 89 28
-47.1427 83.0229 581.292 111 85 22
13.6313 -0.444171 596.937 122 83 12
-40.9449 13.6479 578.786 109 75 10
9.6921 72.5602 619.351 102 70 6
18.1075 10.8371 589.914 112 76 8
10.2036 12.4855 605.601 121 80 10
3.92335 20.5267 621.167 108 71 1
-16.7667 104.736 638.377 108 80 21
10.4352 31.6158 571.036 98 61 1
16.8131 32.4496 606.944 116 78 8
36.2258 102.96 622.361 131 99 47
11.5775 -24.0604 601.686 114 75 14
10.2486 4.66734 614.99 87 48 2
-42.9489 18.4404 610.262 108 77 11
-54.4288 119.486 591.267 123 88 35
31.8008 78.5579 622.173 101 69 4
-20.078 91.5896 578.018 99 63 1
-30.1532 -28.7657 592.656 103 71 7
37.2946 20.9064 576.747 105 68 9
49.2006 32.0816 577.983 99 68 2
5.74599 13.0365 624.62 105 64 2
-1.14038 101.678 590.34 89 60 3
35.6885 65.2081 563.823 85 54 3
-47.6769 -19.9056 590.929 125 89 28
-16.2077 -29.5366 612.394 116 82 16
-21.228 10.684 635.287 112 78 7
-18.2825 63.7704 563.92 116 77 2
32.6226 30.4203 577.101 101 66 10
-45.8187 117.58 572.323 112 77 16
-34.44 22.4995 620.689 115 82 23
-26.2544 -7.95553 626.089 90 66 14
-51.8657 7.26906 588.492 113 78 14
-23.4676 -7.96797 629.981 95 67 7
-40.4372 -26.5266 603.001 120 82 13
7.51137 92.7852 566.895 117 81 8
6.13585 93.1171 567.276 114 76 9
36.867 47.0568 593.12 114 76 4
-41.7638 -18.5227 602.088 106 72 7
-45.6874 3.8053 598.983 115 80 19
8.78599 84.9 561.173 103 69 5
-20.4275 8.20894 564.485 102 70 8
-45.916 39.837 582.081 105 75 15
-22.9071 53.498 563.712 120 82 15
9.71598 73.0002 619.251 105 71 8
47.1209 120.516 586.314 125 94 31
-28.1368 90.7062 568.861 126 91 25
-38.593 94.4754 623.049 113 83 26
-38.0417 30.0498 620.543 98 65 5
-27.8151 -5.92024 628.086 101 72 10
54.4145 73.6206 601.832 100 62 5
27.336 89.8961 619.303 117 83 17
32.0459 84.2498 620.231 99 69 3
-16.6209 13.0936 633.512 103 71 0
-39.4492 78.6248 616.996 117 85 20
23.7933 106.25 629.696 99 70 12
-37.8383 17.3406 568.868 113 76 15
-42.2411 52.6863 567.759 121 85 27
-44.5084 -11.692 592.351 107 75 6
-1.10536 107.938 564.176 107 73 13
9.92605 64.6703 620.391 106 72 3
-40.5813 110.481 645.683 133 99 34
-25.8575 117.981 581.913 115 84 27
-8.67675 -18.5671 575.604 98 70 21
6.1166 119.8 586.554 120 86 22
-48.7465 106.609 635.754 115 82 11
66.0543 94.4677 583.324 130 94 21
12.0381 63.5886 560.375 101 62 1
-2.37764 92.7132 602.297 100 65 0
3.68597 104.592 606.26 87 58 1
13.3159 117.536 609.365 114 82 28
57.9592 59.7353 592.393 112 73 1
-41.7744 50.8933 567.678 116 85 25
66.2482 82.2483 575.505 103 62 0
-3.9522 30.9585 562.359 107 69 1
-43.4479 19.1445 609.877 112 78 19
-31.4333 28.9943 564.816 106 73 7
-41.9457 63.4826 621.219 108 79 32
-18.7767 93.7761 590.498 110 77 15
-25.3666 115.369 588.348 108 79 21
-4.28733 -13.3944 620.716 123 88 25
-47.0064 83.727 583.764 118 82 13
-35.9469 -22.0125 578.63 114 77 8
-29.8329 94.8354 568.152 124 83 8
14.7768 26.9273 576.646 105 68 3
-55.8376 43.0185 599.373 104 69 0
7.37649 113.167 619.041 97 64 9
63.7929 51.0413 586.008 107 71 3
-4.93882 -11.4477 634.288 90 53 1
3.7222 33.2431 566.146 96 59 1
-51.6272 109.764 573.017 113 80 12
2.94115 -22.0819 616.567 113 71 8
-4.17782 78.7602 618.775 111 73 15
-40.9126 21.5194 574.017 82 51 0
30.4123 83.1741 558.597 111 73 1
23.053 40.5072 577.539 83 52 5
-44.4352 101.812 623.069 109 78 15
-25.1001 66.2928 636.738 112 79 3
-32.1042 34.367 626.428 84 56 0
-24.1974 -2.71734 635.752 116 82 11
-36.9591 43.455 622.499 110 77 8
-44.6423 69.5424 606.294 112 80 25
-22.4804 105.61 589.302 101 73 11
-20.2122 81.4467 637.23 115 86 32
59.2078 51.0372 573.408 86 52 0
0.249469 23.1773 567.858 111 72 7
44.0109 64.9787 612.466 100 62 3
9.68398 115.969 618.181 109 78 21
-49.4284 26.5698 605.076 105 74 9
34.8539 98.454 623.371 127 94 39
-7.51993 -13.7961 623.454 99 71 16
-36.0288 81.085 613.925 104 75 16
68.2022 63.0522 579.939 121 79 14
-37.432 -11.6899 580.737 125 90 28
-35.8989 -16.5785 612.03 120 87 17
-25.1082 21.5127 629.192 109 77 7
34.1677 35.997 574.942 99 63 4
-29.4996 -8.39604 571.178 109 76 8
-8.54124 64.3654 567.412 110 74 3
-34.2777 -16.2132 580.078 120 84 20
14.5403 119.878 562.74 113 78 19
-50.265 -2.81794 593.355 109 74 1
40.3691 117.873 570.318 108 74 1
-39.5876 51.4131 566.403 113 76 14
-37.7165 94.2612 595.554 94 65 13
-20.6536 62.7973 563.412 115 77 2
43.9854 86.5256 622.257 113 80 11
-29.6925 81.5948 608.997 95 69 15
-43.6101 92.9946 573.504 112 80 26
50.6903 58.6568 598.691 112 78 9
18.3102 51.4482 567.342 110 71 1
-35.358 40.4502 624.62 101 69 8
52.1253 107.728 605.961 118 88 30
-17.3006 59.9049 635.993 112 83 17
-58.8883 114.251 582.057 114 84 23
-14.3025 -20.1287 575.644 105 73 17
-14.1563 57.2982 565.401 123 86 20
-21.4472 111.195 641.831 116 85 28
-44.7088 -24.8589 600.67 111 81 16
-6.35337 67.3437 630.417 112 79 20
-7.91082 64.5078 631.748 111 76 12
-20.5748 -5.64555 637.036 117 83 13
54.153 56.4631 594.702 102 65 1
-28.4808 8.48631 565.865 100 68 19
-38.9136 -17.4673 607.771 109 73 3
-23.6547 89.5842 640.309 111 81 26
34.6392 22.0628 578.076 100 67 1
8.829 -3.47563 619.543 99 63 3
-43.6459 -1.28199 601.82 114 80 20
-44.6142 0.721699 605.434 102 67 0
-48.7829 64.7439 599.273 106 75 15
23.571 100.093 627.587 115 82 19
36.2471 110.213 620.589 130 99 40
-7.09284 81.2108 626.3 113 79 11
-42.5078 -4.57101 602.914 109 70 2
-38.3738 101.924 619.288 99 73 23
17.4525 29.3304 597.548 102 64 3
-55.318 112.371 574.363 117 81 19
-14.7082 86.9764 601.25 118 84 29
62.1546 85.4288 577.264 97 61 0
28.3406 44.772 578.662 86 55 0
-22.1662 99.9447 578.511 95 64 1
-25.6465 24.3128 563.754 96 60 0
-31.2264 56.3576 633.363 114 78 9
69.0084 90.8927 584.934 134 93 26
70.7823 81.18 579.241 116 83 9
-33.2732 8.84786 568.501 103 69 3
5.9302 -0.825585 570.374 96 59 1
22.13 112.791 629.61 124 93 34
16.6358 19.8633 590.371 118 78 16
28.3734 99.3963 626.069 126 92 28
-25.615 98.4808 642.764 108 77 16
-49.5838 -6.76604 590.231 105 70 5
-42.8031 83.9536 572.971 112 80 25
-26.2059 112.619 590.626 102 71 13
-8.93701 6.84867 565.49 103 64 1
-44.0495 99.8928 634.972 119 82 15
61.0414 49.9021 588.875 97 59 2
3.43497 -22.6753 614.418 104 65 1
15.0484 26.344 601.639 89 56 1
-9.7904 -27.2595 584.613 113 77 15
-7.97203 36.617 626.475 101 64 1
64.9917 86.8224 589.75 124 88 18
2.8527 49.6881 622.377 112 78 18
4.6218 53.0828 620.652 98 65 3
15.33 77.5996 555.789 110 76 0
-4.67268 73.5011 570.894 96 62 1
-11.2725 30.7848 629.778 111 76 14
-12.6057 -22.3376 578.667 106 77 24
-30.2539 5.66593 627.396 106 70 1
-41.3982 99.3003 635.752 101 74 20
-18.5671 116.44 627.72 123 93 31
-0.511677 78.0656 570.88 108 72 8
-9.73088 115.216 573.666 100 72 25
-33.618 33.3468 566.012 104 71 0
13.0069 25.327 606.885 99 65 4
68.7549 65.1078 584.226 124 81 20
39.2737 35.0812 592.619 115 76 7
6.0909 -25.2753 603.629 102 70 9
-25.0235 29.0553 563.161 119 79 0
-4.77311 -11.278 570.695 106 67 9
13.7093 -8.64691 597.855 131 88 15
-19.1527 -7.06988 567.858 108 73 12
-41.3751 74.1754 620.474 122 91 22
-27.3258 -26.105 614.575 105 77 11
37.8452 79.1442 557.87 110 72 2
59.0808 84.0157 588.52 97 62 1
-13.2067 101.462 621.537 98 69 11
63.4577 54.8001 574.577 97 62 0
-15.9947 73.1553 637.882 104 75 16
48.4301 82.9699 616.833 97 66 7
-49.0199 -5.56975 586.697 113 79 14
-21.7889 104.292 588.755 100 68 16
33.9145 34.4328 590.853 119 79 4
-5.77977 107.746 568.032 115 80 13
30.7116 113.384 624.069 129 99 43
-13.781 -13.1812 629.112 99 69 9
2.19091 92.3387 570.158 114 79 12
56.1963 38.5983 586.905 101 65 0
-3.14004 80.9648 575.439 106 69 7
26.0027 49.9535 571.788 95 59 2
39.4391 71.9044 560.547 94 60 1
51.066 65.6629 573.189 100 65 0
34.2694 121.007 583.605 128 99 46
-10.1155 111.241 574.245 66 40 0
-45.8846 -15.7074 583.158 114 80 11
-45.4926 5.85853 607.067 110 73 12
-25.2541 106.145 591.819 99 68 12
0.83743 107.039 590.58 90 61 4
-12.5959 42.3006 564.024 110 72 1
