ply
format ascii 1.0
comment Created by Open3D
element vertex 1417
property double x
property double y
property double z
property uchar red
property uchar green
property uchar blue
end_header
18.9409 31.329 400.275 104 68 2
-33.2764 79.5461 396.804 130 95 34
-10.9711 52.3584 382.513 112 75 10
1.75626 27.0146 414.301 95 61 1
-7.01116 -6.14793 378.793 114 75 9
-5.32643 -20.0552 394.33 102 69 11
11.4385 4.30306 393.923 110 71 8
-31.8593 16.1428 405.758 96 65 7
33.7716 57.6219 409.123 113 78 10
-25.9708 54.2695 379.78 115 79 18
-33.7788 36.6035 395.161 108 77 9
-8.84403 71.1955 419.558 101 75 22
-14.4241 2.95022 423.835 116 80 10
5.00526 17.7461 379.336 107 69 0
-25.9429 63.5299 379.008 114 78 4
6.22238 71.2785 420.76 124 91 25
-10.212 52.3599 383.338 110 74 15
-26.2884 36.0661 417.766 116 84 20
8.25538 80.1011 374.252 124 88 28
-2.7561 -6.93072 380.584 102 67 8
45.0095 47.7556 392.343 117 78 10
5.41758 66.6135 375.149 120 84 16
29.3538 74.0871 409.123 119 90 32
-18.675 77.5924 418.192 126 94 34
-23.9064 18.1597 378.889 113 76 19
3.15767 34.9871 413.911 100 62 0
22.0996 77.751 410.817 130 97 40
-30.937 79.568 391.339 1 0 0
-21.8844 65.4119 427.601 104 76 22
-11.5048 59.7312 390.196 95 63 9
3.29852 52.2587 374.69 111 71 7
12.0616 -13.9425 390.727 115 83 22
35.8564 64.414 381.143 92 59 0
16.5089 27.7007 385.625 77 53 9
-24.0149 80.7084 390.48 123 89 32
35.0532 57.0219 381.225 86 55 6
-14.8309 8.84464 423.076 100 68 8
-5.86322 -18.1827 411.129 114 81 18
38.1672 56.7932 386.546 95 58 0
35.4213 31.0046 394.665 114 77 6
-31.0795 -4.09776 397.855 101 69 8
-7.30318 38.2054 376.532 106 70 4
-5.12325 29.491 417.662 118 81 21
7.56628 57.3068 411.496 113 77 10
-16.8809 18.5644 418.793 115 79 13
11.1484 22.9959 383.878 93 59 2
-26.7305 65.2674 379.207 119 85 31
32.8732 41.676 380.615 98 62 1
40.4508 41.5759 381.684 98 61 0
21.8911 51.2931 414.566 102 72 11
-14.8036 73.0568 428.369 109 81 27
-35.4547 26.0326 404.48 102 70 5
-24.8186 73.0293 413.524 92 68 3
-30.8641 -11.9515 395.152 105 74 6
-28.6706 -15.432 402.265 117 82 11
14.8915 57.8786 412.16 119 85 21
41.8512 52.935 391.524 97 66 9
21.7051 40.496 379.29 84 57 2
21.541 42.9392 374.637 91 56 1
-35.826 27.5511 405.63 113 80 18
32.9184 75.331 403.396 116 83 25
36.7282 37.2766 380.399 105 67 3
-14.296 15.6705 375.143 118 80 6
-32.6085 70.0608 397.154 101 72 15
-19.1021 -9.15647 383.098 98 70 20
9.49223 51.3148 413.58 106 73 8
31.5178 23.4973 383.006 90 61 8
-5.34556 50.5953 420.032 113 79 14
-27.9694 46.0914 415.183 124 88 20
-24.7105 0.0442022 381.59 109 75 9
29.305 75.1061 379.591 102 72 1
-5.20692 38.6919 420.14 100 68 5
41.1778 31.2679 390.908 105 68 0
-36.695 78.1145 397.139 122 93 39
21.3411 34.4297 400.589 109 73 13
22.2703 47.1746 412.276 98 66 0
5.8679 -18.5933 397.328 103 70 7
-26.123 -9.89159 402.428 114 78 4
23.1225 81.1099 385.446 133 99 34
-17.7065 25.8484 419.58 111 77 9
-25.1231 48.8133 407.419 114 84 25
-9.97685 -8.52751 380.282 111 81 15
2.94246 18.2388 378.447 111 69 1
-15.8098 -3.06697 379.923 97 67 9
3.79458 81.2146 376.495 128 94 28
34.6726 45.4457 399.869 97 60 1
24.8369 33.974 397.05 96 64 11
-4.01221 -0.801824 378.919 101 64 6
-4.79367 0.375135 423.136 113 75 13
-10.5344 65.6136 425.281 117 84 26
-32.6582 73.5714 422.149 110 78 23
-4.03592 65.7365 389.088 74 45 8
-13.2135 -8.03775 415.569 106 79 27
41.854 48.458 393.301 108 71 2
20.8007 81.1399 384.199 130 101 38
2.77698 -15.9084 407.364 109 74 12
7.0686 1.3337 413.759 106 72 15
-34.518 4.33046 395.532 112 74 6
11.2274 -13.3928 397.12 110 71 9
26.3916 45.4077 376.123 84 56 3
12.6964 39.992 411.275 111 73 10
-28.5036 65.9869 416.167 106 77 20
-16.8365 60.3821 380.062 120 83 13
-25.5958 66.5946 378.444 117 80 16
-16.9777 14.484 375.682 101 63 0
-8.83284 19.7829 375.178 113 74 1
-7.23326 46.4411 422.794 114 79 18
-6.27083 -14.6867 385.028 105 72 17
-21.7004 31.4664 419.595 110 77 19
-10.8379 14.5367 374.967 100 64 3
-20.5679 -8.56666 383.3 111 77 19
-10.0771 4.57843 423.956 120 82 21
-26.0157 60.4451 379.878 120 87 33
-5.84044 -12.6308 414.733 115 82 17
-25.6568 19.3218 379.919 108 71 4
11.7455 5.48548 390.883 102 67 5
38.5945 69.2146 388.586 116 82 16
-27.7562 69.1885 397.688 84 58 1
-16.7221 77.9872 389.92 114 83 28
7.84567 8.80732 401.872 107 68 8
33.6758 43.956 399.625 96 59 1
-6.10541 75.0419 377.704 113 78 18
10.2219 -10.4905 390.075 107 71 0
-29.6971 34.0214 411.026 108 80 27
-36.1912 16.2549 395.484 103 69 4
-30.97 46.8708 382.804 113 82 21
7.37604 64.443 375.01 107 71 9
-6.7002 50.4939 422.891 116 83 18
-30.2508 -14.5138 399.411 115 83 11
-25.7363 23.1896 415.652 111 76 14
46.4794 50.2085 385.071 106 72 12
-25.7563 -13.2792 406.057 115 82 12
-32.6324 9.04692 388.496 112 78 13
35.5943 37.1668 396.982 101 66 3
24.8163 73.9091 375.247 109 74 7
-33.5068 -0.128464 395.459 98 65 3
15.8207 68.8319 418.957 98 70 9
43.8655 47.6171 383.196 96 56 0
42.0087 59.7325 384.08 105 70 3
-4.01331 69.5696 387.366 78 50 4
-14.6313 -15.8554 413.33 123 91 34
-12.2862 63.1505 428.585 116 80 18
23.4938 49.7067 371.946 107 68 1
-4.26637 63.5389 382.967 118 84 6
-10.5106 52.0697 423.941 113 84 32
17.1062 56.8135 370.697 111 75 8
-14.8212 21.4264 419.352 113 77 5
-2.48516 -9.55192 413.569 126 90 30
17.7863 59.2718 412.567 115 80 18
45.2668 42.0713 390.307 116 76 0
33.7673 53.6149 380.142 85 54 1
-25.6986 53.4291 410.867 110 81 22
-0.420245 13.264 418.034 104 68 1
33.5738 72.0005 405.843 121 91 21
5.254 13.9659 380.364 98 60 0
20.0418 37.4685 405.836 88 57 1
33.009 44.9 381.952 98 60 1
-21.6202 5.47797 417.139 114 73 1
-13.0861 -16.8881 388.465 104 72 10
-29.8358 -11.9999 386.569 121 90 28
-35.8646 12.2923 395.471 104 72 1
8.72229 75.1933 420.064 118 87 30
34.2136 56.2793 379.863 88 55 2
7.81323 -15.6131 401.586 114 74 9
16.1018 35.5908 406.565 110 74 8
37.5038 28.4364 393.052 93 59 5
9.59576 9.0427 397.738 110 70 8
-14.124 -6.11198 420.753 82 60 9
22.7109 76.9386 376.166 114 79 19
-25.8455 47.3869 408.065 118 84 22
-15.6188 -7.13004 381.609 110 78 14
38.6058 27.101 385.443 99 66 0
-15.9359 -19.5628 393.762 104 71 4
18.1413 80.7639 385.587 132 103 44
-30.7861 53.7139 394.706 110 79 26
-3.79324 -14.7539 412.801 105 78 26
-0.68281 1.68916 379.484 102 66 1
2.03703 52.912 376.838 104 68 4
-27.9426 79.8286 395.143 126 94 35
-27.0198 52.107 415.159 113 83 19
22.1671 47.7398 413.004 90 57 1
-25.595 59.3743 414.051 120 90 23
34.7564 75.7992 388.724 110 81 13
1.55204 47.5298 376.78 114 77 15
-21.5231 -12.5781 409.031 125 92 37
33.0266 39.4557 380.573 94 57 1
26.5321 78.4405 379.8 113 78 13
22.2621 15.3265 386.048 96 65 1
19.1204 31.6736 400.393 105 71 2
26.7098 17.8158 383.306 98 63 0
-36.1324 30.2382 404.16 93 64 5
29.0155 44.1641 379.488 111 72 5
-22.4678 2.35044 417.011 94 62 0
-15.0588 14.1907 375.664 102 62 0
24.8039 79.0108 398.76 127 98 36
-31.0431 60.1175 386.325 115 85 27
-37.1284 25.9348 400.117 103 64 0
-26.1144 -10.7727 403.665 107 75 2
29.4685 9.43981 388.888 102 62 4
41.5481 40.46 393.818 113 73 3
-33.4655 13.6029 390.573 115 80 14
-31.4767 10.8759 389.253 123 88 27
13.5523 23.33 399.874 95 59 1
-35.4942 76.2191 381.754 113 76 17
-23.2773 56.6201 378.528 107 74 13
2.41656 -14.1339 410.836 117 76 11
9.75287 13.4074 396.471 110 72 2
-28.9774 76.4145 424.232 125 98 37
-22.8968 -3.08348 414.075 99 64 0
7.55698 14.3651 402.411 109 74 5
-19.1124 1.2167 379.496 95 65 9
-14.2697 12.4758 420.863 109 75 0
-25.4948 81.1179 386.51 124 92 35
-6.59454 37.8723 376.383 110 73 2
-10.347 45.8289 424.776 106 73 8
19.702 20.8968 387.774 79 50 0
6.31971 -12.3934 382.802 101 66 0
-27.509 -0.505672 408.205 110 79 19
-2.99033 58.815 386.015 119 83 15
-4.42128 24.2167 416.202 116 80 6
-17.4111 -8.44124 381.995 108 73 12
43.8436 61.0619 384.703 94 64 4
-12.4575 4.65231 375.207 104 66 2
9.31061 44.5985 372.145 108 67 1
1.36852 68.4994 376.45 106 75 16
-17.6664 48.1758 375.489 121 85 10
-0.116503 19.0907 376.945 95 59 1
22.0806 15.0461 391.032 86 57 2
4.23112 53.8975 374.2 109 70 4
-20.7908 10.7116 419.241 107 73 4
-27.6994 -6.70265 400.121 117 82 27
-21.6994 42.2061 375.861 122 84 19
36.1356 30.2972 382.266 99 67 1
21.6058 18.5737 392.58 108 73 10
5.59337 -0.359279 418.367 98 64 5
6.42803 -1.54351 414.221 90 58 3
-12.2758 59.3013 386.731 97 64 0
-26.187 41.2091 419.144 119 85 20
13.7422 20.6177 389.903 97 64 5
6.01168 69.6846 373.367 114 77 18
28.7233 25.5678 395.698 110 72 4
17.4285 41.7496 413.842 115 77 18
-4.91288 -17.8944 390.079 96 69 20
-30.0221 66.7457 382.809 113 81 26
-5.44102 68.1702 386.147 69 43 10
-36.1891 27.0568 396.875 113 77 17
-29.3207 46.3738 380.452 113 80 18
-33.3915 12.5123 400.922 103 73 1
30.6985 21.1111 393.67 106 68 3
7.3739 23.6115 380.03 105 65 1
-21.6668 -13.9176 408.723 115 83 12
19.187 28.2422 386.748 86 57 1
-31.9978 30.2315 407.928 112 79 14
10.7587 65.1444 372.329 117 77 13
38.1852 48.8019 393.801 115 75 0
-2.37646 27.7235 376.06 110 71 1
-32.3466 36.0224 382.336 111 77 22
-2.65229 33.5668 416.698 112 73 0
-24.7198 37.6799 419.989 115 81 6
-22.1275 45.6014 375.744 123 85 7
42.7481 63.4268 392.75 131 95 31
-22.5286 15.8975 377.591 111 75 13
15.6339 38.2765 378.291 96 64 5
12.8861 78.9905 375.753 117 83 25
-4.66595 70.9165 379.525 117 85 16
-11.1081 -15.2362 414.583 127 90 20
-18.837 74.7793 429.805 99 72 28
-23.8278 50.6636 420.532 107 77 19
-14.032 68.6129 390.325 93 66 1
-3.60773 49.858 417.489 116 82 25
-8.72931 37.5943 422.071 119 84 31
-22.0744 -5.51832 382.557 106 74 9
23.7826 59.0093 372.584 106 68 1
-25.0966 49.9932 377.552 105 65 9
6.24943 71.6543 372.495 119 81 11
-12.1543 54.032 424.666 116 84 31
4.69046 17.1947 379.298 107 67 0
-27.819 77.1662 417.461 123 94 33
27.2455 20.9213 382.726 99 69 14
-27.1821 26.6242 382.512 105 73 7
-28.025 36.1475 413.56 124 91 32
5.78355 76.2981 405.189 99 68 6
-5.04612 51.5399 419.388 114 82 22
32.8835 76.5419 385.242 107 75 15
6.59578 -1.33465 411.378 96 59 2
4.64813 -10.0034 384.097 110 71 1
-21.7362 66.5949 377.983 120 84 10
26.7965 55.182 413.879 127 94 33
-24.2116 -20.0776 397.964 118 85 24
-7.32082 74.0813 380.81 80 58 3
22.5597 61.8011 370.204 97 65 4
5.84413 49.6275 412.684 100 68 6
-19.6519 54.5284 377.111 118 81 9
13.5293 80.4925 376.977 121 90 28
-9.98237 3.41983 423.78 133 96 33
23.2206 79.5783 396.893 127 92 27
-14.7083 19.0875 418.927 119 82 12
-30.9051 -5.39622 396.902 111 75 6
15.311 78.4081 375.46 116 84 23
-32.9935 42.8998 395.792 111 77 16
27.7457 29.804 396.07 108 71 4
10.4236 -17.3946 391.91 114 78 7
-12.8344 -8.82325 414.967 116 86 33
-19.3708 3.33462 379.003 98 65 6
-3.42853 1.45908 422.374 114 78 8
2.41783 57.5527 410.581 113 80 11
-31.0626 66.7087 394.13 112 81 15
-39.0542 79.36 384.013 103 74 10
-0.724715 30.6644 375.789 108 71 1
-7.17621 55.0004 388.209 98 66 4
-23.9718 -9.37798 386.552 124 88 17
-31.5078 80.3493 389.77 105 77 18
11.0698 61.4792 373.983 118 84 27
29.0258 59.8585 414.533 99 71 13
36.4979 32.8271 395.505 103 66 2
-10.6655 -3.57408 424.536 101 68 0
1.35792 70.399 396.845 91 61 8
-36.0139 20.4974 402.097 110 77 13
3.85158 -2.4083 380.739 113 76 15
25.4184 32.9738 396.499 99 67 11
24.7628 51.1102 371.895 107 69 3
26.1516 10.0632 386.121 99 66 1
25.658 41.115 409.683 101 63 2
12.3605 46.1871 371.237 113 76 15
-34.4543 36.8471 403.708 105 71 8
32.5023 56.1286 377.091 87 55 1
17.4375 36.0943 405.751 107 74 11
-0.733465 23.8188 375.173 110 68 1
-28.4932 78.2739 397.183 95 69 17
42.4774 40.7411 393.098 105 67 2
-10.5565 43.9586 376.743 112 70 2
8.57515 19.7439 381.798 111 70 2
-9.22346 43.2689 377.127 103 67 2
40.882 51.2975 383.524 99 63 0
-27.9189 47.2832 414.683 123 89 29
-19.5555 4.9192 418.97 117 78 6
8.85333 0.0177689 398.467 122 81 2
12.0922 42.2799 413.663 115 74 2
16.431 28.7331 384.235 85 59 9
41.3686 64.7549 385.398 115 76 7
19.0734 59.9093 368.892 111 74 7
-36.7075 28.9138 398.904 105 73 5
-25.9215 -5.83247 403.054 116 79 8
-29.0981 -14.9082 401.401 115 82 10
-38.4857 76.5359 393.65 124 90 28
6.73401 -18.5365 397.706 109 71 10
-14.9794 39.5458 424.179 118 86 28
28.9767 80.4439 384.502 122 80 22
-29.3427 14.2319 387.824 117 80 10
-23.0872 57.6174 378.479 117 80 21
-29.6239 -10.7242 395.024 104 72 7
2.48453 26.0284 414.674 96 60 1
-25.0547 6.19937 412.052 108 68 0
-27.9183 0.82922 407.507 107 75 19
-32.7889 44.3276 395.811 114 80 25
-15.5021 68.9777 428.388 100 71 14
10.0808 75.403 420.128 134 102 38
4.54016 72.1679 420.039 105 78 23
20.0041 30.163 386.093 98 65 7
-16.1609 58.8088 397.833 104 71 12
-15.4177 -20.4777 398.337 109 77 19
-32.6606 69.9325 420.713 114 78 7
43.422 35.3831 389.649 114 72 1
-32.9288 30.3918 390.442 108 73 14
-1.10198 27.4735 415.34 116 80 15
8.74113 7.15329 398.804 113 73 2
-6.46511 -10.7588 416.013 114 78 15
-38.8495 76.9818 386.666 111 78 7
-2.31845 70.3375 389.216 81 51 7
37.8815 49.4582 394.174 108 71 0
0.990405 2.23141 380.144 110 71 1
-31.3106 -0.698247 399.38 111 78 9
5.53419 -6.9543 385.924 117 80 7
-26.5117 18.5145 381.476 103 72 4
-13.6163 2.38513 423.652 115 82 13
10.3967 -1.01571 390.319 108 75 2
1.29013 -1.75175 421.628 111 74 6
-31.5302 68.884 417.388 115 81 26
-6.307 -11.9672 382.938 99 67 18
-17.5413 14.0644 376.027 101 64 0
-29.1455 -0.446887 401.314 113 78 17
-7.76066 22.0071 420.083 120 80 8
35.0617 57.7592 380.974 86 56 1
-14.9215 72.8207 390.184 103 72 7
-31.0584 47.0453 397.118 114 80 19
-23.2673 26.2297 416.702 105 75 12
-7.52375 6.4634 375.273 103 65 2
-26.1057 56.3366 413.252 116 85 26
-25.2023 47.0338 420.174 113 81 12
24.5502 50.4648 412.595 96 63 2
18.3324 46.8724 372.942 98 60 1
35.8111 72.8904 400.046 116 84 25
-31.4499 14.2952 404.141 101 67 1
-4.38567 68.274 387.458 81 48 3
-11.5047 32.8578 422.599 112 76 10
-27.2875 64.532 418.299 107 76 22
12.4123 40.1916 374.514 97 60 1
0.0335935 77.3787 374.305 117 81 7
-10.1157 38.1609 376.654 115 79 10
-33.5219 3.00821 391.491 117 81 15
-7.44502 34.6874 420.47 113 76 7
21.6174 47.9799 414.006 87 56 0
3.47895 58.1683 379.564 112 78 6
-28.1705 -11.0293 397.556 110 76 9
-7.85734 2.94088 423.908 123 85 26
-22.6243 50.8355 376.297 111 79 9
-20.7403 52.8938 423.177 114 80 22
36.5 31.9991 381.377 92 60 0
-4.77908 60.1379 387.35 107 74 6
8.70801 10.371 386.063 107 70 4
-7.16788 30.3384 376.386 114 78 18
10.3701 -16.498 398.246 117 78 17
14.3575 24.3387 387.524 71 43 4
-33.2814 3.16201 390.98 105 75 9
-6.91316 -16.8422 414.094 115 83 9
-26.414 47.9482 406.843 115 82 22
17.7044 56.8443 370.551 108 66 1
35.8323 30.7267 381.6 91 59 0
-7.71527 47.7349 380.962 104 69 2
-36.3674 9.9012 395.81 111 73 5
-35.8251 7.76025 397.062 116 82 16
2.09202 -17.8505 403.351 113 75 17
24.5251 61.9871 372.357 107 71 1
11.6889 52.7419 370.113 115 75 0
-24.6213 20.5607 415.259 112 74 4
-9.45933 -9.02001 417.682 85 61 16
10.7034 15.6535 396.942 112 74 6
11.5261 78.6297 404.539 114 85 28
13.9612 72.9797 372.496 110 75 8
-28.6306 72.0818 380.068 117 83 27
7.63516 49.6554 371.556 108 69 1
-23.4809 20.924 416.261 102 68 4
-21.4247 22.2254 377.192 97 65 3
10.6334 -10.658 392.028 107 73 0
-27.6201 64.9517 417.94 115 84 21
-20.4161 28.4673 418.478 114 82 13
-15.4189 54.3996 379.201 108 73 8
25.4536 77.9116 407.635 129 98 48
-31.182 51.738 384.575 110 78 11
21.7377 29.3796 394.226 111 75 5
45.4965 53.8587 392.574 125 85 9
2.16024 -18.3838 394.663 100 68 5
8.80659 1.25691 397.823 105 68 2
-16.7557 14.737 419.295 108 75 11
14.0613 23.9063 398.297 105 70 6
-15.7973 22.1641 418.767 114 77 5
15.8458 47.8271 416.244 119 85 19
44.6514 53.2974 392.607 120 84 11
-0.00875872 63.8198 405.007 88 58 0
-17.7885 79.4583 388.595 117 89 30
-30.987 26.5534 407.933 117 82 20
-31.4046 66.2303 385.745 118 84 33
-6.23215 56.6451 389.698 99 68 10
-12.6611 76.1929 425.447 116 87 25
-13.912 67.5263 389.918 93 63 1
7.22805 -7.90159 400.45 99 63 2
-13.6209 10.5625 422.022 117 81 5
13.1853 16.7664 393.885 109 74 13
-24.0685 69.5383 430.985 117 90 30
9.868 -0.934906 388.843 111 76 6
-14.5574 31.7306 422.53 120 88 29
-33.1374 12.4536 401.489 111 76 11
36.7423 52.1626 404.176 103 69 8
7.05628 51.4886 412.051 105 71 7
44.5503 38.6229 389.369 117 76 7
-8.96744 14.63 374.704 114 75 16
-25.7462 49.5846 378.033 98 62 8
-29.1249 79.7705 393.161 113 82 26
-31.0476 23.9833 408.12 96 64 0
-23.417 76.1503 414.388 108 80 28
2.27874 63.1381 413.764 90 61 12
-26.2611 15.5166 380.3 103 70 6
-15.7386 13.9172 419.952 107 72 5
-27.1895 78.9129 380.978 120 82 25
16.345 73.1239 419.409 126 94 38
2.04623 52.9721 411.513 95 66 11
20.8177 65.9917 417.125 117 87 22
-8.76025 -19.809 407.716 118 82 15
3.43752 0.836143 379.704 102 64 1
-29.8992 66.6884 420.597 95 66 18
-14.7959 70.7707 388.35 97 65 0
-11.2182 36.9244 375.867 118 78 5
28.9056 9.33308 385.767 95 62 0
11.0528 53.9128 413.013 105 72 10
3.70812 -16.9356 387.083 98 65 3
33.7779 44.9015 401.772 96 61 1
37.6643 51.6626 399.33 99 63 0
-30.1404 76.375 417.785 99 73 14
-9.24012 28.7801 420.543 116 81 14
-13.3668 39.2391 375.606 106 68 2
-14.316 57.0818 404.124 111 77 7
2.09833 6.71012 419.948 105 68 2
-14.4359 68.8735 388.616 97 65 9
4.57277 81.577 377.364 132 100 37
38.6509 33.7778 381.944 98 62 1
-25.5266 43.9711 419.532 110 79 13
25.986 36.4455 379.911 91 55 1
-18.74 23.167 376.594 116 77 4
18.7714 50.0789 415.845 109 76 12
-7.98219 -17.3462 413.78 117 82 13
-1.89671 12.4548 377.197 104 70 8
43.5513 34.9136 385.874 111 73 9
-18.3417 2.96302 378.805 97 65 6
32.8045 52.6635 378.783 90 57 1
-4.08907 70.0161 379.352 118 86 17
-10.756 5.24147 374.816 100 63 3
-2.175 41.376 417.528 117 79 16
-28.893 23.9777 386.295 100 69 2
28.12 20.599 383.44 110 78 22
-15.4051 14.1313 419.954 107 73 5
-18.8987 77.7444 382.384 106 72 11
-26.208 19.5454 411.588 106 74 13
2.84301 4.36463 418.494 99 63 4
-26.1045 11.2408 410.704 96 67 0
-6.95112 37.5178 376.608 110 74 2
10.8145 -11.0675 393.538 106 72 0
-30.4165 73.9653 398.57 78 53 4
25.6486 28.7366 382.017 98 61 0
-25.9703 67.6442 397.383 81 55 0
29.4094 40.1365 401.366 104 70 13
6.96464 48.892 371.943 109 72 8
-2.57387 71.8189 376.531 115 77 6
36.3608 45.6239 394.873 113 73 6
-34.7245 34.7891 397.783 106 74 1
15.9165 42.242 372.958 100 61 1
18.9446 26.8694 389.391 74 52 3
6.89172 57.7516 411.921 121 82 21
-7.22388 56.8603 421.136 120 91 29
-28.3394 38.4614 413.573 124 88 26
7.59014 13.8091 402.359 110 74 2
23.3349 26.5405 382.866 96 64 9
12.2956 15.1244 390.578 96 65 4
-8.40079 44.6959 378.374 105 69 2
-27.3906 18.6354 410.757 104 69 1
12.5511 28.2918 380.559 100 62 1
-3.67745 66.8628 380.858 112 83 12
7.27884 -9.52989 386.024 106 70 7
-14.0968 58.812 382.23 113 77 12
41.0005 55.2352 385.802 86 52 0
-33.3563 27.9858 392.734 104 72 6
-13.1476 59.1347 384.175 103 69 5
-21.8216 -11.1408 386.442 102 75 26
-2.38708 59.7558 384.861 121 87 12
11.0764 -16.0921 390.281 106 73 9
12.0187 7.64494 393.555 114 76 3
23.8563 41.428 378.794 72 49 2
-27.4235 -4.17164 402.626 105 70 0
20.977 75.8188 374.797 114 77 18
-6.52325 -14.9182 385.14 111 74 15
10.1296 9.42804 396.459 106 67 1
25.1114 27.2405 382.153 95 62 0
5.72928 12.425 407.612 99 64 4
-17.664 13.4103 419.786 102 72 15
-18.4444 69.068 380.577 114 80 20
2.40079 70.8568 400.339 89 60 4
-5.6683 58.3948 408.708 108 75 13
-29.9636 28.8543 383.474 104 73 10
45.1991 53.9345 392.623 124 86 15
10.8209 72.9039 372.648 111 75 7
45.3131 48.1989 392.21 116 78 7
6.19329 35.1092 376.274 112 73 1
-25.2346 -19.5824 400.621 123 86 35
-30.1026 58.7951 384.076 113 81 27
-23.6508 -16.9101 405.352 114 84 23
-10.414 -7.84123 421.443 75 52 2
37.743 69.7999 386.655 113 80 18
-34.0501 37.3166 385.314 113 82 21
7.26557 -15.3067 403.945 106 67 0
-21.2423 20.2412 376.608 109 74 3
12.6847 80.7153 385.676 130 98 44
15.2388 35.3623 407.187 114 79 19
33.0366 72.1765 381.459 95 63 0
31.2083 76.0718 404.95 116 90 26
-32.3831 16.661 406.363 101 69 2
-26.4923 51.4569 411.186 118 85 18
-27.7683 31.6774 378.973 110 77 18
-7.88879 0.822532 376.13 109 79 17
-5.51474 36.601 419.806 116 79 17
-4.62336 -9.72848 414.768 106 77 24
-37.28 28.1429 403.324 110 76 10
37.3029 42.58 394.609 110 72 8
-36.4778 30.4174 399.69 102 71 10
-14.4252 55.2054 380.561 119 83 14
9.9036 67.1676 372.322 106 69 0
24.2865 67.7027 372.39 116 76 6
33.7094 57.061 409.257 110 74 15
-21.2261 -14.6315 388.522 114 81 34
-33.0059 34.7354 384.043 114 81 20
-3.35325 17.012 375.3 111 73 14
-15.7084 59.739 397.173 107 72 1
34.8999 32.2009 381.051 74 43 0
-24.4849 23.1846 378.601 110 74 16
4.56716 81.1536 383.656 135 101 43
-5.42495 59.1017 396.864 113 80 18
-6.78001 37.6893 376.498 109 72 2
15.4709 56.5296 412.857 104 71 10
27.3858 60.3012 414.532 116 87 29
17.5031 77.5189 375.124 120 84 24
6.2068 51.3803 411.972 99 67 7
-24.1374 59.256 378.946 123 85 34
0.606424 64.7339 378.351 127 90 25
-13.8665 20.4228 375.875 101 62 0
-32.3744 13.8503 390.317 120 84 12
19.208 54.4844 371.453 108 70 1
4.64563 30.3965 413.113 115 71 1
-10.5479 14.9444 374.884 100 65 2
-4.59981 54.3643 416.873 111 78 13
-11.606 -15.0067 414.181 125 89 23
-33.7869 69.0088 389.404 118 84 28
8.81354 10.851 398.692 112 75 1
22.385 44.9529 413.209 105 72 14
-4.39049 12.982 375.708 99 62 1
-14.8705 4.27822 423.565 111 71 9
-15.4017 -17.631 410.757 119 85 30
26.0467 27.7692 382.404 90 60 0
-28.3939 75.0786 398.02 83 60 1
-19.4805 79.8864 391.79 120 93 39
-23.0391 78.7763 395.504 105 77 20
-32.8677 41.5063 396.814 104 74 13
-9.07592 41.6009 376.387 110 66 2
19.8863 41.097 376.098 87 56 6
-28.1246 65.4701 422.516 101 71 12
34.1595 45.8297 382.691 106 64 0
-20.4699 53.5786 405.733 104 75 6
6.86827 16.3252 407.959 115 79 12
46.8669 58.7878 387.876 119 88 30
11.3343 -14.3999 388.573 115 82 13
0.835355 65.9556 404.118 86 58 0
10.7913 81.6441 379.518 140 109 49
-32.5085 15.0347 390.686 123 88 22
-26.8707 30.7633 413.565 107 82 23
0.554138 5.22008 378.337 103 65 1
-27.6171 17.2775 385.623 85 54 0
-25.0366 67.9539 429.319 121 87 20
21.1849 33.5268 384.594 100 66 4
34.735 57.1466 408.16 114 80 22
30.0489 42.9144 379.394 98 60 1
-29.4509 -7.10766 389.924 121 88 22
-0.78326 73.0241 375.633 104 69 12
-17.6446 77.9208 384.8 107 72 12
42.3912 52.6924 383.347 105 67 1
10.427 -16.5987 398.093 115 77 17
4.0423 63.7987 376.999 106 70 7
-2.70103 34.8097 375.976 112 77 4
-25.9785 65.4246 413.367 111 78 16
-17.5045 57.0752 406.267 105 73 9
4.43188 79.5705 374.317 119 84 25
-0.740636 59.551 383.461 121 86 15
21.74 81.2975 380.936 130 101 39
-21.9729 67.5339 378.261 114 77 14
-17.3666 9.49093 376.596 96 61 1
20.3066 61.878 414.509 123 90 35
-7.44299 1.25034 376.207 110 75 7
-3.57248 47.0232 418.865 111 74 1
31.2026 79.4592 386.173 112 80 12
-8.70688 -9.80423 416.835 132 95 31
-31.1206 57.8831 388.418 102 70 8
-5.15462 57.5498 411.632 94 67 1
-3.45447 51.7655 383.029 98 63 2
32.3059 20.3103 385.755 107 72 0
38.9448 39.6893 381.144 101 64 0
-9.42281 58.2178 401.775 119 85 32
2.27639 -12.5976 411.232 121 84 14
26.6463 80.2787 392.61 131 102 43
17.6804 39.4271 411.545 102 64 8
6.52451 23.1532 410.843 107 68 1
-18.044 78.1887 392.696 110 82 26
11.6543 44.1884 414.725 117 80 8
-30.2399 70.9623 381.092 117 80 10
8.9185 80.9592 384.041 136 101 43
23.642 15.6495 384.924 99 69 9
37.7386 70.6118 388.406 115 85 24
9.84112 41.866 373.378 100 60 0
-32.9815 73.597 421.786 114 83 19
3.78837 -5.23258 383.164 90 65 10
-20.8467 -10.9325 410.87 108 78 19
-36.063 17.3329 401.169 115 82 27
18.9393 74.0783 373.314 115 76 17
-16.6873 21.2681 418.669 114 77 14
-30.3528 77.3312 381.299 117 80 16
-18.7101 9.00091 376.376 103 65 0
-33.9191 35.1276 394.872 112 78 20
29.7831 58.8948 414.719 106 76 15
2.02379 62.7571 379.158 105 71 8
24.83 66.4678 372.368 119 80 3
-10.799 8.37731 422.421 102 69 7
11.8825 79.2466 375.838 112 82 26
-22.2527 56.1571 398.876 100 67 4
13.8317 23.7134 399.105 87 55 2
-37.7538 75.328 396.906 114 80 12
0.555616 -3.10531 380.414 99 65 13
-33.9171 24.7175 393.636 110 76 13
16.2623 56.9649 370.727 113 77 10
-37.0576 73.6068 386.739 104 71 16
-33.7076 80.5233 391.543 124 92 35
13.6198 72.2892 372.328 116 79 15
-6.29422 3.92713 376.331 102 67 18
8.55065 66.5483 372.893 118 77 3
-18.4189 31.2015 376.089 119 79 0
-36.4937 73.3189 385.624 107 76 13
-10.7755 55.3787 385.488 104 70 3
25.4678 15.8868 383.716 101 66 0
24.3139 61.2251 372.273 105 70 1
4.52487 18.9036 409.585 120 81 15
-14.0431 57.3637 425.316 115 81 21
37.1856 70.0605 385.66 106 75 12
-20.5836 63.6174 409.77 94 69 14
-8.39716 56.1549 422.372 108 75 19
-6.10253 66.1808 384.202 107 77 0
25.6122 18.9285 383.405 95 62 0
-33.1204 41.0749 395.821 109 77 16
44.764 38.3153 387.878 116 79 18
2.72377 55.9065 410.231 109 76 19
-5.55421 47.7488 421.11 115 85 30
-1.43062 38.3111 415.884 111 76 19
-25.3604 11.15 379.361 109 78 22
-8.01689 48.6003 381.63 106 70 12
-37.3958 74.9313 395.12 105 74 12
17.5238 33.0053 381.597 92 59 2
-24.1756 65.6534 426.252 101 72 19
9.53576 -8.07048 393.306 120 84 17
28.9738 56.2908 372.876 103 65 1
7.37387 1.78177 407.757 97 64 2
-9.68418 55.5001 387.755 100 66 4
-27.5425 18.7247 383.777 92 63 12
-32.9318 28.7019 407.279 98 66 5
-21.5259 77.3242 414.664 115 82 28
11.0759 77.534 417.799 134 104 48
-6.55251 -8.86816 421.884 71 45 2
-8.3517 9.18413 374.503 111 74 2
-27.4444 77.178 417.054 119 89 35
-29.6337 -0.654925 387.906 119 86 16
-9.11913 54.3199 423.96 110 77 21
27.3757 13.5839 384.138 96 65 0
12.8364 81.1829 381.973 139 103 45
-11.5061 -11.572 382.608 107 72 11
32.4931 48.7066 381.508 92 57 1
5.14722 20.0431 409.867 110 71 2
-6.04817 42.0888 377.191 105 66 2
-6.9847 40.251 376.593 112 74 2
-10.8317 5.71103 374.797 100 63 3
32.4146 22.8702 392.46 118 81 9
43.4788 34.3041 386.561 116 79 9
-10.5225 16.1901 375.087 103 69 2
28.2956 10.3159 389.619 117 76 5
-25.9058 31.4428 414.965 112 79 20
-10.884 -19.2678 409.393 113 81 18
37.5094 25.4786 389.55 103 67 10
-2.37333 -17.7496 390.67 109 74 22
-14.3556 -5.90129 420.898 82 59 13
-24.0795 61.3568 420.705 123 91 29
9.4227 4.28841 396.957 118 79 11
5.91116 16.7296 408.356 119 81 13
1.90643 15.4702 415.125 111 74 1
-19.4258 33.0065 420.948 103 71 15
-14.2562 0.662335 377.304 105 72 7
-28.079 -2.60136 387.444 118 81 15
9.87024 58.1741 372.267 103 66 0
-21.2939 12.7247 415.438 110 80 16
-8.84433 64.1046 422.903 120 86 30
33.2838 22.8751 384.593 86 56 0
23.3536 31.7723 383.389 106 68 3
-21.2305 80.4546 391.414 118 91 35
32.2338 79.9197 391.945 130 97 36
36.2918 65.8823 405.533 121 89 29
-3.57664 64.8367 390.216 81 50 2
10.0014 -14.7929 399.636 121 81 14
2.31406 69.5016 374.243 121 84 9
-25.1598 63.5652 421.935 107 78 18
4.61734 80.8198 385.839 129 100 40
27.2387 36.3025 399.909 102 67 5
-6.66378 44.6639 422.15 113 83 30
-28.1654 68.4953 397.496 91 59 0
-28.7685 3.08205 387.592 117 85 17
23.5978 20.8209 383.122 102 68 4
-33.7214 -2.41454 393.056 116 79 20
-17.4198 64.3084 380.355 115 79 12
7.5464 58.5325 374.228 100 64 0
-21.4149 -14.4216 388.384 116 81 27
2.66889 -2.95407 419.641 113 78 7
-25.3016 -4.84099 405.449 113 78 18
-16.359 77.8409 416.858 122 90 35
-12.2924 -12.3643 413.4 130 93 20
-30.3843 67.8994 421.888 112 78 12
7.40812 11.1695 404.003 103 65 4
3.13347 71.924 402.052 90 61 2
40.3903 60.9433 396.407 114 80 20
9.82432 32.0319 410.239 114 71 1
12.8261 63.2554 416.131 114 81 21
-13.6588 37.7777 376.663 119 81 9
4.61253 -3.63095 410.277 98 64 3
42.4752 57.7815 393.006 116 81 20
17.4034 29.9139 384.236 85 57 6
-26.3328 -0.865504 383.777 105 72 7
38.9092 69.4332 393.367 122 87 28
-7.6825 0.598385 423.303 105 71 16
11.6883 63.5091 372.576 113 71 0
3.17969 14.4857 412.443 107 69 4
31.9286 18.4121 386.858 109 73 10
10.8116 33.6942 409.746 109 75 9
-17.4932 40.4811 423.913 111 79 23
-23.9896 56.3581 419.998 118 86 26
12.3085 22.1051 400.905 112 75 4
-22.8763 25.4608 378.581 117 79 15
-14.3808 49.1888 424.927 107 78 9
3.52225 18.1495 411.895 105 67 1
-27.2679 66.1081 425.535 116 79 6
-20.1683 23.1116 417.745 108 77 10
19.2014 78.0795 409.081 131 98 43
3.45134 73.0092 415.606 89 58 10
-35.5453 8.3898 397.533 121 78 10
-12.9486 57.1609 399.876 124 89 34
-12.0329 31.0266 422.055 120 80 18
7.59951 -0.622927 400.549 113 79 2
2.72812 19.3311 414.623 100 64 1
-7.45417 9.79756 422.002 98 62 0
-7.35017 -10.4628 381.136 104 71 15
-33.6602 39.8127 384.002 114 80 22
18.0104 58.0585 412.458 111 79 15
-31.307 69.0184 396.625 105 74 18
-26.0892 -15.8584 385.441 110 72 9
11.1465 54.8073 412.415 105 71 10
-5.39672 77.5639 383.388 94 61 15
-14.3051 27.6036 420.941 115 81 5
14.061 22.7333 389.382 73 42 4
-33.101 71.7502 382.413 111 75 10
-1.4034 13.7848 377.372 111 73 11
-1.34637 19.7457 416.518 100 66 1
31.0397 35.2607 379.605 104 68 1
-30.4244 39.2747 409.079 108 75 10
41.9851 54.3498 383.866 99 61 2
-36.3167 20.4043 401.266 107 70 2
4.05603 -0.345372 380.15 100 63 1
31.5895 71.1116 379.154 97 66 9
-36.0128 30.2114 404.431 99 68 3
-5.72581 51.7557 420.684 116 79 22
-4.42105 76.5519 385.156 80 53 8
-1.28577 58.1682 406.585 99 70 0
30.9986 78.2019 401.59 124 92 28
-7.65619 48.0948 423.704 111 78 12
-3.26848 -1.59576 423.416 122 81 7
-23.0238 72.2944 396.719 79 53 0
4.00907 73.3685 418.627 99 75 18
8.3511 20.3928 407.748 112 73 1
-10.494 -2.30613 424.793 120 84 12
2.17498 65.5537 377.686 120 84 18
-16.3555 55.7175 402.713 118 85 27
10.2183 -15.2763 399.188 126 85 14
-2.26096 -7.08547 417.788 77 53 5
20.5808 36.7871 382.019 98 65 3
13.5828 18.8371 389.588 102 69 15
37.5141 67.6692 401.582 115 85 20
12.8526 20.5324 387.801 105 69 16
-24.8313 -8.22541 407.405 117 83 26
1.0593 16.18 378.454 109 72 14
5.41751 15.8035 379.653 100 58 0
34.4622 38.0841 398.635 111 73 9
4.327 74.2846 402.808 93 62 6
-25.2861 -10.9918 405.53 104 72 9
23.5601 75.2225 413.124 123 95 36
-28.9102 75.7041 380.391 116 81 13
28.1469 10.1857 385.027 101 68 13
-13.4978 -5.11492 379.655 108 74 15
22.4309 29.403 383.684 96 62 7
5.21591 -13.8583 406.945 127 86 10
11.0226 29.2313 408.074 111 74 11
-31.3017 56.53 391.924 101 71 6
5.551 26.2722 412.438 107 68 1
-28.0521 39.9922 378.95 119 83 21
2.20209 52.3989 411.838 95 67 5
47.028 56.0075 391.685 116 79 13
29.0912 49.7506 410.271 112 77 14
0.988796 -16.7558 408.059 110 72 9
-24.5973 1.27316 413.437 99 65 0
2.66895 27.5726 413.726 96 62 1
-29.9501 79.7726 395.709 125 94 35
20.9101 56.4197 372.09 98 66 2
-30.8205 72.4681 426.196 107 76 17
-21.9217 26.1141 417.305 96 66 11
-4.76779 57.6469 388.458 108 74 7
-23.6718 63.6405 377.894 118 82 18
-20.2808 79.2255 382.017 106 73 11
5.46993 57.4955 411.643 104 68 2
11.2993 29.9065 378.87 104 65 1
-12.597 77.2451 422.088 129 98 38
25.2972 53.4914 412.58 111 78 16
-31.1557 10.7081 403.184 109 74 13
32.9575 78.3966 388.325 116 81 26
20.2617 18.8863 387.323 92 61 0
24.6087 40.9307 410.422 104 66 1
13.8907 47.2058 371.092 108 71 1
-5.20015 58.4747 404.695 120 87 29
-31.9765 -2.60665 389.608 123 90 23
-21.3268 -13.2943 387.536 105 74 18
-0.123143 42.0514 415.138 99 64 2
3.72646 -3.34923 381.076 103 75 19
-36.3114 81.1857 386.225 122 90 33
1.16999 45.0606 377.689 110 74 5
14.8439 60.7392 371.779 98 65 4
-30.9556 20.0764 409.171 97 65 3
2.92059 35.4892 413.882 100 64 1
-9.87226 68.0869 411.452 113 81 22
-6.2364 -18.6729 410.149 118 81 19
8.35452 60.969 414.981 120 86 30
40.5308 49.4247 383.093 97 64 0
-12.8462 49.0642 378.72 114 76 12
-13.871 37.8384 376.664 123 84 12
32.228 47.0144 408.691 114 77 13
-18.6333 5.22823 420.222 119 80 7
32.7976 43.7616 401.863 95 57 2
36.1339 35.7823 396.828 106 68 2
32.4811 39.2846 380.427 94 59 1
9.84206 7.16284 387.404 106 68 0
-34.6531 15.2451 392.386 122 89 27
-23.1441 48.249 376.066 115 76 14
12.2847 22.0982 403.603 101 69 1
-2.90465 -17.9751 408.36 108 74 13
47.3518 50.6775 387.961 124 90 28
-30.8256 68.3613 422.669 106 71 13
-31.1996 38.0923 380.788 116 84 22
20.7712 73.9293 417.174 117 89 27
36.9077 53.8932 386.048 94 57 1
35.9839 53.2674 406.672 107 73 0
3.92843 0.997972 379.863 104 63 1
11.9463 80.0629 376.318 116 85 29
0.452726 -5.55275 420.079 89 55 5
-32.4934 70.7293 421.763 118 85 19
-19.7055 -17.4909 408.405 122 83 15
-35.9437 19.583 401.536 108 76 17
-17.9911 5.65633 421.02 114 77 9
-9.15882 22.2065 420.726 100 63 2
-23.7419 73.0205 379.411 119 85 22
-35.3656 8.71383 397.743 112 73 2
-27.0388 74.1266 397.827 79 52 0
-4.17547 -4.26844 378.803 107 71 5
-35.7231 14.2477 397.102 115 78 17
13.9911 30.8276 405.914 110 74 6
-24.2241 72.4785 413.165 90 68 3
32.1295 49.2187 380.366 89 55 1
18.2297 39.2507 411.195 101 67 20
-15.0659 -7.92257 414.893 116 82 16
33.3101 20.3553 389.212 110 72 7
27.0089 37.8133 379.333 100 62 1
38.8856 29.9395 391.929 99 62 2
-30.6933 2.39195 388.849 124 89 19
23.4479 57.8036 372.878 100 64 2
8.85902 5.71049 386.835 108 73 2
-30.4663 -10.7507 388.202 117 84 15
-21.6772 11.1161 416.708 103 72 5
-27.0449 46.2936 417.432 108 78 8
-12.827 -6.91296 420.856 81 56 2
-13.4883 -13.2796 412.68 136 99 22
-15.0904 -19.95 405.979 114 82 22
-24.9324 65.1247 412.582 106 77 17
-35.1162 16.5294 392.931 116 86 34
1.44945 66.9998 405.992 86 57 0
31.7967 54.5636 411.121 101 69 6
-13.3554 0.103667 376.977 100 66 1
4.23031 -7.11412 409.593 110 71 11
-27.2467 22.4765 411.285 114 78 15
-28.5263 73.0974 429.161 112 82 22
8.81286 19.3998 382.157 104 67 5
-7.65437 32.5434 420.748 114 75 6
-10.8157 62.4295 426.771 116 84 16
13.9791 67.3708 370.48 104 67 1
-6.38359 52.1431 421.602 114 85 23
34.3258 51.9538 408.293 118 81 15
-35.7705 28.2724 405.814 102 73 4
-14.4318 75.8999 427.09 115 88 29
31.9774 40.4911 380.301 96 59 1
31.7558 49.5696 409.657 100 72 14
22.7901 59.5357 371.149 103 69 4
25.6664 65.5026 413.557 128 95 37
-3.42743 19.2762 417.317 113 75 7
34.6254 42.8434 397.082 91 55 1
21.5741 69.3971 417.465 132 101 43
-20.4502 7.36576 420.028 117 84 20
-24.4705 6.52443 381.333 87 57 1
39.9194 41.9945 381.594 100 62 0
27.675 46.4264 411.518 110 76 27
-4.11603 -19.1871 406.535 116 79 17
-8.15776 60.4346 422.229 123 91 37
34.2129 31.9278 381.116 66 39 0
17.2762 38.2054 409.135 92 61 0
-32.9797 -0.821157 390.371 124 90 25
-10.12 -4.27777 377.797 118 80 7
-19.493 18.0448 376.027 104 66 0
15.0782 25.5633 398.829 104 69 2
-8.20741 4.26118 375.316 106 68 2
34.6479 41.0686 398.512 107 69 1
-31.9379 27.6058 389.122 101 69 1
-12.2966 55.2279 424.909 109 76 18
14.7721 37.7711 378.17 108 70 1
36.9989 25.0943 390.443 95 61 1
35.6966 56.5756 407.681 119 83 22
-16.2419 47.7201 375.768 114 77 4
-1.38791 36.6758 415.996 107 70 2
-14.1808 64.7981 386.425 96 66 1
2.77898 -0.272222 421.142 122 84 18
4.10392 25.9937 413.783 109 76 6
-18.3078 -20.1187 398.619 113 79 15
-2.44 64.4465 392.736 90 60 0
-12.2902 57.215 400.695 121 86 25
-31.7743 27.6868 388.341 104 73 7
-26.2308 5.36946 382.999 107 70 2
5.35033 54.4913 373.344 109 70 6
27.2303 28.4943 381.88 99 66 1
-28.7229 71.745 414.978 96 71 10
-19.8079 66.3783 379.266 115 81 20
-31.4983 65.3436 387.108 114 83 36
14.4238 81.2999 378.354 129 97 34
-18.414 -16.5488 411.492 104 78 22
-26.8699 16.9646 410.257 107 76 7
-12.9318 -7.88602 416.069 96 70 23
19.7422 33.5617 383.487 82 60 11
7.15584 15.4969 405.714 110 74 3
38.4372 51.8393 394.197 103 65 5
-0.869352 11.5307 377.568 113 73 7
-22.1838 -11.5172 408.899 114 78 9
37.3644 72.2286 391.542 119 85 27
-9.40885 1.46067 375.853 100 64 6
27.6335 50.2632 410.187 115 78 13
8.45266 -18.1135 397.891 112 73 5
26.1705 79.8545 395.254 135 102 48
-24.9886 77.3445 415.929 110 83 25
-17.202 61.6793 408.004 100 74 18
5.62072 11.5215 408.845 103 66 2
28.3777 14.0036 384.456 111 74 10
-6.77967 11.0396 421.336 101 65 0
-29.8733 9.89863 405.746 108 71 10
17.7307 67.2021 369.684 99 62 1
-6.62305 21.889 376.16 103 65 1
3.15297 60.8581 412.913 111 78 25
41.8068 43.8224 393.797 110 73 5
7.32725 55.2716 372.172 108 70 7
1.18205 71.2766 395.384 90 60 8
-15.5977 75.0662 389.88 105 74 14
-30.7482 67.3157 419.378 107 73 11
-27.4468 14.0411 409.046 99 67 12
-27.0205 11.4164 381.937 100 65 3
-4.92414 37.2609 376.162 113 75 3
-7.98035 5.24011 375.186 106 68 2
7.83183 18.1433 380.539 107 68 1
16.6432 36.6519 406.71 110 76 10
-20.8072 72.5756 396.046 86 60 11
5.51485 -7.54378 385.853 115 80 8
-17.7853 59.893 425.902 126 91 32
40.0159 57.379 393.681 104 72 14
6.40675 16.8777 379.733 99 59 0
-15.887 25.1761 376.643 95 61 2
6.77954 -1.00996 414.435 100 64 3
-30.6186 45.4331 382.076 114 81 12
0.276839 55.9263 382.776 110 76 10
0.0377237 38.3071 376.593 112 73 4
-38.2668 77.5325 391.31 110 77 11
4.99411 70.2074 373.815 106 72 12
-32.1281 29.6204 407.508 102 70 14
-9.7412 -18.6143 390.344 107 74 4
-35.3002 27.2937 406.045 106 71 4
38.7102 26.3708 386.94 103 66 0
14.9308 53.1954 369.884 121 83 24
35.5898 22.8296 387.476 103 67 13
-15.4204 5.75787 422.909 116 82 5
10.509 7.73553 396.586 114 74 1
-28.3459 -14.928 385.752 123 84 21
-35.174 79.8859 382.782 112 77 19
35.1168 73.0125 401.827 115 85 30
23.9608 27.3623 395.453 118 79 4
22.7394 27.9068 383.882 101 66 4
9.77364 9.38618 397.161 108 70 9
-9.36778 56.1275 389.351 108 72 11
-25.1887 -1.98847 411.62 101 66 0
38.3838 57.4532 402.486 106 69 1
-29.3247 69.3144 397.603 99 68 11
-10.4284 53.1272 383.769 111 74 14
-10.8671 59.4657 425.107 117 83 20
10.164 -1.30311 389.622 111 75 5
37.5882 47.5718 394.105 118 82 18
43.1767 59.4881 384.109 103 64 1
10.0963 7.36999 387.7 103 68 5
-35.8059 14.8377 396.586 111 74 2
-20.7056 60.7155 397.593 89 60 6
7.22322 2.15702 409.587 88 54 2
-5.29969 73.3974 378.136 110 77 12
38.8204 57.7362 386.318 92 57 0
3.94414 -8.04267 384.759 108 72 6
0.697069 25.2826 376.284 107 66 1
3.66911 -10.5349 407.468 128 89 13
-3.19791 4.84834 422.814 115 77 11
-8.00542 62.9098 410.297 107 76 12
34.4839 31.7461 381.105 72 42 0
8.06595 3.99366 401.484 103 68 2
-2.23789 24.2734 375.029 103 62 1
-19.2652 -5.38307 414.782 101 69 13
-2.82084 -19.8818 402.409 113 77 17
40.3452 64.4554 396.372 110 79 17
-8.78564 0.522932 376.343 112 72 6
-3.53833 -12.103 412.56 131 94 20
40.6916 55.5864 387.001 81 48 0
20.8557 77.0471 413.902 121 92 31
7.14566 -8.27181 402.654 103 65 2
-11.0568 -19.8469 407.771 118 83 12
-14.173 66.2583 393.722 108 74 3
-12.3786 -8.41718 415.67 105 77 28
-27.5864 28.5709 380.689 103 69 3
28.3505 78.1621 404.619 123 94 30
-29.673 67.7824 423.748 110 75 17
-27.9777 7.18757 408.98 106 69 7
26.8234 43.0067 410.756 101 65 2
1.96921 1.55628 421.561 100 70 3
-24.091 50.5429 406.113 114 81 16
25.5066 15.0319 392.55 109 73 3
9.98735 -13.7214 399.666 119 80 4
13.9715 67.4356 418.648 121 85 28
6.90107 5.55459 384.879 109 69 0
3.42209 -7.88342 384.353 116 81 24
-25.9944 -7.64288 403.703 108 74 1
-30.2066 -6.37231 396.78 105 70 3
-8.53339 44.2856 378.133 107 70 9
-2.52468 53.444 410.771 98 68 9
0.767715 62.1192 409.521 84 57 1
6.00703 56.0828 410.689 118 84 24
12.4135 68.7168 372.087 101 67 11
23.8434 68.761 415.289 133 102 41
-22.5968 -16.4087 389.314 98 69 10
-30.1353 67.1111 419.987 101 72 12
-24.6271 3.35581 408.546 102 66 0
33.7 44.9558 382.33 104 66 0
-14.7749 48.9122 376.787 114 73 2
4.73705 21.699 414.126 103 66 2
7.46674 8.16018 402.652 116 79 4
2.74972 -3.30049 419.039 105 68 8
-26.5422 24.5504 414.217 106 73 6
-31.9347 69.5432 423.326 113 79 10
5.232 67.15 374.997 111 75 9
-29.704 66.7321 420.144 96 66 18
24.6552 65.6112 414.307 129 96 42
33.0225 19.8815 388.316 106 70 8
14.9801 46.234 416.033 125 89 21
-14.9262 -7.28039 381.348 106 72 9
11.8384 -13.3758 395.342 116 79 6
12.3892 38.4362 376.955 96 59 1
18.529 49.5867 372.423 103 65 1
-24.9969 48.928 407.639 114 80 18
2.50918 62.228 379.377 110 74 7
-4.2359 -12.7657 383.802 110 72 13
-24.0003 50.6374 407.694 104 75 12
32.4187 49.1464 380.973 88 57 1
-13.186 64.4522 390.324 93 66 2
-11.9911 10.0494 375.027 96 64 10
-8.07681 -20.4837 404.383 117 82 12
8.89521 79.9743 393.114 131 94 38
-5.32091 59.2407 395.276 113 77 8
-7.25881 9.63239 375.266 101 63 2
4.91647 -11.4087 407.193 126 86 1
-24.0415 18.3768 413.569 106 72 1
-32.8911 30.3634 389.691 110 77 13
-16.8484 7.66806 422.723 119 83 0
-33.5567 41.3794 394.809 108 75 6
-13.3141 23.6971 375.367 106 68 6
-5.74391 -5.95519 378.797 103 68 12
-28.414 71.2194 414.698 97 71 4
-18.6143 4.29878 378.116 86 57 8
-35.0372 33.3662 401.189 101 71 5
46.6002 58.2653 386.04 116 80 6
19.51 70.6223 419.445 126 93 27
3.80669 -1.41756 420.216 103 70 12
-23.2559 65.9026 427.716 108 79 16
39.4428 57.0972 397.409 103 66 0
-16.0612 -4.24502 421.108 97 71 23
-33.3154 34.0859 392.753 103 68 0
-6.85449 38.9781 421.552 105 70 1
-19.0349 76.9317 381.741 111 74 21
39.2368 30.3682 391.795 100 63 1
-28.4342 39.3835 410.96 117 85 23
7.688 38.0679 376.689 114 79 18
-16.5734 -6.42892 381.235 111 76 17
33.6519 78.173 390.703 116 84 31
7.54971 74.5047 371.371 121 81 7
-17.2245 9.94757 422.307 101 71 5
-33.1788 50.0985 389.677 109 73 6
-4.24008 -15.0778 413.354 102 74 10
29.0258 58.1593 414.974 115 81 21
27.775 43.7997 410.616 105 67 3
10.1835 17.8285 403.745 110 77 20
-17.0446 -15.0162 387.013 108 73 23
6.70132 59.4004 413.116 111 78 24
3.78536 13.5878 379.209 99 60 1
40.4419 63.1972 384.316 104 67 1
6.14865 77.0383 412.496 107 73 15
-9.28123 11.5526 421.132 123 88 23
-1.29022 5.24407 421.881 104 68 1
-15.6209 65.0242 382.879 105 69 1
-19.9873 -0.969328 420.635 102 72 11
20.3911 68.0526 417.819 113 83 25
-37.6637 74.6637 394.343 119 84 21
-18.2889 -5.32782 380.792 103 71 8
-11.9954 6.69482 423.666 113 76 9
-19.7747 -11.2359 412.325 111 79 1
-26.9033 52.6105 415.195 113 81 23
9.15371 55.6116 371.253 104 65 0
-29.6165 23.8748 388.04 110 78 19
-9.35637 18.0618 375.04 119 81 11
36.5829 49.2953 400.235 98 65 1
6.56487 78.1915 400.089 111 77 21
-12.0545 61.9207 391.392 95 66 6
46.5567 59.41 390.598 127 91 27
-26.9897 56.1321 397.175 104 71 3
26.2321 35.2703 399.043 96 64 7
-28.3428 40.8552 379.266 115 79 19
-4.75792 76.0053 384.969 81 52 10
-15.8989 51.1459 424.741 112 83 24
-7.4614 18.0982 375.266 113 75 1
29.587 51.9266 410.261 111 77 15
-32.9263 74.1542 419.245 108 77 15
4.0723 42.4252 414.251 100 64 2
6.40131 6.29087 383.735 94 59 0
-3.69042 36.6545 418.004 118 77 18
10.3392 18.9294 385.311 109 71 15
33.6791 53.2421 380.146 86 54 1
4.49702 -4.47373 409.198 118 81 23
-1.74189 -13.3938 385.695 107 72 17
-15.7519 77.1162 422.976 125 94 40
47.1366 52.0846 391.286 121 81 20
-1.15082 -16.7093 410.396 100 67 9
-27.3138 38.1688 416.898 119 89 38
33.9436 75.0087 401.807 116 88 35
2.20242 -15.1298 409.954 104 69 0
12.0488 8.02699 392.852 115 75 5
24.0259 80.6403 389.524 132 97 32
-11.7594 48.7804 379.425 114 78 3
-8.93742 34.8775 422.065 117 84 27
10.4529 11.4943 388.447 110 77 11
5.07042 75.8018 418.472 115 83 17
-9.87113 4.13232 423.968 125 88 22
11.1115 21.4428 404.636 114 76 1
5.53438 -7.76656 406.893 115 78 5
9.83184 66.1986 372.561 104 67 0
0.414469 -11.7376 412.581 121 86 9
-20.5903 75.0172 395.61 95 64 12
-27.651 64.9972 420.519 101 70 16
-31.0565 69.5065 397.106 100 70 11
-35.3328 14.6034 393.962 110 79 10
23.2674 51.605 413.811 99 69 1
-32.0553 -0.808406 398.517 116 80 22
-2.63794 -12.4497 412.868 136 95 10
10.6603 57.6043 371.466 100 66 0
14.7245 25.139 398.99 93 61 2
35.1058 69.9697 382.396 95 67 9
10.6073 39.6524 411.526 116 76 6
-15.1168 19.3019 418.64 118 84 20
-4.77714 80.3083 379.468 123 91 31
-0.764481 64.1444 399.075 95 64 1
-0.0929416 72.6508 391.674 87 58 5
-20.3872 40.1974 423.007 109 78 19
-1.63016 37.3482 416.074 116 77 24
4.21841 15.0893 409.536 120 84 22
3.40544 60.902 413.12 111 78 20
-31.6727 66.0861 386.848 115 83 35
0.013895 65.2346 400.204 93 63 2
-12.8473 -5.01063 424.776 110 78 17
-34.5841 72.1266 397.974 111 81 22
-36.4821 25.304 401.426 111 76 5
-20.9797 11.5451 376.644 106 72 0
6.8175 2.1466 384.055 110 71 0
29.3937 35.4428 379.465 104 64 1
27.5585 55.0685 372.127 107 69 2
10.2133 36.3079 410.976 110 70 1
5.32303 -3.07344 412.607 90 57 2
-26.2854 24.9222 380.7 105 71 6
-13.2139 76.1216 426.016 114 88 25
13.3732 61.8652 415.335 102 72 16
9.07885 14.8204 399.283 104 65 2
-26.4213 3.20554 382.793 104 68 5
7.38366 1.84665 407.596 97 62 2
12.4154 57.4894 411.964 125 90 29
-16.3819 21.9133 376.607 112 73 10
6.9283 7.62837 382.706 100 62 0
-27.8106 45.7826 413.114 127 93 32
-19.1321 -2.30558 420.776 112 78 4
-22.8761 80.4123 392.333 124 91 34
0.617379 -13.221 385.183 117 79 14
38.7814 26.1818 388.515 104 68 5
8.92755 -17.9544 390.984 116 82 5
-28.4177 65.8543 416.433 105 75 24
17.5783 32.0236 382.462 93 59 2
-11.4082 39.8876 423.957 115 82 18
-6.8161 0.384679 376.855 106 68 3
9.95351 -7.56941 396.082 113 71 5
-35.6175 25.6506 395.748 108 75 13
30.8593 40.0503 400.686 104 69 2
-33.1 69.0527 393.9 114 82 22
-7.3267 10.2 421.901 98 61 0
44.6044 39.1365 389.816 116 76 13
-9.2051 29.9135 420.967 114 79 12
3.59809 -8.46597 410.83 116 77 4
-20.9578 71.4405 430.606 121 92 40
42.1271 64.4524 392.389 133 96 40
-19.9565 14.6884 417.124 118 82 20
24.6636 79.7347 379.78 117 83 18
-22.12 74.5092 413.181 101 76 18
-19.74 23.0159 376.599 113 73 5
42.4419 41.1465 393.272 111 74 9
-21.7034 14.9458 415.347 112 77 17
6.35413 -9.67127 385.218 106 66 0
-3.25778 25.2477 375.852 92 58 1
-18.3101 10.049 421.811 105 72 4
-10.5213 30.5466 421.646 112 83 12
27.927 60.881 372.356 110 75 9
4.8777 1.16905 419.462 90 60 3
7.44935 -13.4606 382.569 111 76 14
-20.016 -15.0341 411.075 127 89 29
-21.3362 -5.87319 412.325 113 82 15
29.9787 66.8293 375.338 101 69 6
-17.3915 -4.10557 420.039 94 71 23
-1.80813 41.6568 377.004 108 72 2
31.5364 45.3591 408.034 103 65 2
2.70802 41.8755 414.851 105 69 1
-5.35485 78.2143 378.47 116 83 18
23.9977 12.7445 385.634 99 65 1
-13.9287 16.3479 419.813 111 78 6
40.9508 50.1037 392.896 114 75 11
39.126 59.1853 400.431 109 75 8
-20.0397 44.6527 375.675 115 79 18
-16.6849 42.5398 375.775 104 66 2
11.296 77.8672 415.81 130 98 41
-25.0274 -3.82351 408.158 97 66 6
-10.8539 -7.73336 421.036 76 54 2
-39.2537 77.3218 388.064 108 76 7
21.8212 79.5387 396.313 15 3 5
-4.11624 10.185 421.148 109 70 1
-27.8658 75.6423 428.291 118 88 16
-10.5371 15.4746 421 99 64 0
-1.71844 3.14082 378.504 93 58 1
17.8846 31.7842 383.021 91 59 2
-12.3898 39.9143 424.134 117 85 27
-7.98234 31.692 375.717 113 76 4
-28.9226 -16.395 392.854 118 82 16
-21.4573 -6.52051 382.682 107 76 17
-20.378 -11.3123 385.001 109 76 14
29.1321 77.8566 404.684 125 95 34
-29.0776 66.0481 417.511 100 70 3
-30.8801 11.8819 403.725 114 79 20
2.21024 -16.7182 406.481 109 72 15
-22.201 12.3216 414.173 107 76 9
-3.19027 70.4784 378.387 116 84 9
33.7795 44.1893 382.234 98 63 0
-7.55813 50.6195 423.738 114 81 19
24.2742 34.731 397.571 97 67 9
-9.50763 58.1653 393.032 120 86 17
24.2766 30.3989 382.723 94 61 2
14.7895 60.0573 413.548 105 74 21
-4.71314 2.88483 377.833 104 67 1
-7.05992 61.8965 413.422 100 73 10
25.1221 76.203 376.898 111 76 15
-31.4722 19.01 389.45 120 85 12
19.3416 70.749 419.53 125 92 21
24.3586 33.8721 396.73 97 65 11
-10.4143 58.9047 392.42 110 75 1
7.69435 19.8757 380.802 106 67 1
5.46659 38.7589 376.162 111 74 1
-28.0385 -0.0440594 387.245 107 77 20
-28.4405 38.223 378.804 118 80 19
-14.6048 67.452 427.872 118 85 34
-29.88 -5.29141 389.1 117 85 20
-0.00846746 -4.85034 381.037 99 66 6
-30.8123 25.9691 388.65 113 81 22
-4.72772 15.5302 419.88 103 69 0
-7.6251 31.8796 420.605 116 77 11
10.6159 69.9322 420.641 122 89 31
3.82502 1.82806 420.188 100 67 9
7.00248 34.2006 411.83 112 73 11
-1.2971 8.00021 376.854 107 70 5
-21.3593 32.0821 420.088 107 75 11
7.81554 -4.26917 400.129 117 77 2
-34.0074 75.3019 381.312 120 85 16
-18.6238 76.3186 424.642 3 0 0
11.6985 38.4789 376.732 98 62 1
26.8566 50.2913 372.781 99 62 1
33.8585 72.1982 405.23 121 89 29
6.73657 56.4617 410.892 122 90 30
-21.9632 43.2202 376.132 120 85 13
-29.3932 -11.1359 395.956 105 71 6
-22.6216 -5.49237 383.753 88 63 0
27.1945 62.0658 414.056 90 65 3
-31.1687 22.6577 408.986 96 62 0
-18.1196 44.9159 424.065 117 86 25
-36.0377 71.4171 388.433 108 78 13
15.7527 27.6338 401.664 97 58 2
40.2409 35.685 393.946 103 65 1
-36.1983 72.0345 390.112 109 79 22
-9.98048 31.5142 375.465 118 80 1
3.92436 -6.72363 410.547 119 80 12
-34.5422 25.9898 406.157 108 69 0
-33.8579 38.7402 396.81 107 75 12
39.1438 66.0046 398.627 112 82 26
24.8439 17.1962 383.5 101 67 2
-16.5502 -3.41534 380.387 106 74 13
7.11022 -12.4957 406.12 125 86 8
-27.9757 -11.3263 398.315 108 74 8
-21.1393 -18.7838 404.213 108 74 24
30.9594 67.5007 376.518 100 66 4
2.86327 -4.56409 414.699 99 64 9
-3.66294 54.5069 412.864 103 73 7
6.3621 7.91829 381.054 103 66 1
36.1863 52.8286 406.122 102 68 3
8.71346 -11.6789 404.1 113 71 3
9.40981 16.6625 384.411 97 65 4
4.51949 45.2739 374.412 108 74 7
25.2532 68.5749 413.576 131 95 42
-25.9453 70.7559 431.27 104 79 19
-6.49794 58.7015 401.505 122 88 31
-10.8928 -12.6681 383.189 114 78 15
-2.0902 71.1393 389.205 81 52 7
6.4607 -2.70043 385.261 102 68 13
-4.14479 -0.0774624 423.421 113 73 1
11.5301 -12.1015 391.723 109 73 2
